ncols         336
nrows         31
xllcorner     51.1492872396
yllcorner     36.0073467013
cellsize      0.0003
nodata_value  -9999.0
1848.339 1835.3 1825.47 1825.173 1828.84 1840.617 1860.782 1882.458 1906.504 1924.216 1938.958 1955.575 1969.433 1980.894 1991.793 2001.086 2020.096 2044.697 2057.279 2070.87 2086.198 2100.139 2114.625 2126.178 2135.66 2147.131 2159.684 2174.335 2191.629 2207.828 2226.729 2246.016 2262.328 2282.569 2303.333 2321.061 2338.366 2351.935 2360.703 2359.371 2346.054 2328.222 2307.53 2289.24 2272.443 2261.293 2252.449 2244.83 2240.209 2236.555 2232.955 2230.246 2228.757 2230.26 2231.198 2231.634 2232.446 2233.199 2232.867 2230.895 2228.76 2226.578 2224.655 2223.05 2222.431 2221.764 2219.717 2219.431 2220.054 2220.798 2224.01 2227.243 2227.019 2224.439 2223.133 2223.379 2227.566 2233.872 2238.579 2241.948 2248.484 2259.541 2269.381 2280.296 2285.427 2283.876 2283.103 2291.961 2307.451 2325.014 2339.913 2355.243 2370.214 2383.194 2396.121 2407.202 2416.319 2425.834 2433.437 2438.502 2440.914 2446.045 2457.54 2471.386 2484.274 2499.887 2516.27 2531.05 2549.027 2566.939 2584.461 2603.936 2622.875 2642.064 2662.892 2682.929 2704.545 2727.315 2745.895 2759.14 2762.872 2762.885 2765.095 2771.779 2775.704 2773.775 2769.262 2763.784 2757.048 2752.514 2748.988 2745.234 2742.521 2737.041 2731.233 2725.482 2719.603 2714.846 2709.565 2701.941 2694.296 2686.233 2679.513 2673.152 2667.985 2659.711 2652.44 2646.258 2640.928 2635.92 2631.637 2629.026 2630.007 2637.489 2644.384 2653.898 2664.943 2680.208 2695.577 2708.8 2720.06 2733.495 2746.176 2760.838 2778.257 2795.639 2812.699 2828.138 2841.144 2849.846 2854.74 2856.078 2850.445 2840.697 2830.508 2819.74 2810.17 2798.556 2783.866 2769.99 2752.95 2731.698 2712.576 2691.882 2673.179 2658.181 2640.806 2623.863 2608.333 2591.309 2575.913 2558.313 2540.903 2526.495 2509.358 2494.463 2482.741 2471.116 2459.527 2446.881 2442.18 2449.579 2461.918 2474.427 2485.122 2496.948 2495.467 2491.583 2498.346 2519.961 2543.327 2564.178 2575.25 2576.613 2576.123 2576.382 2576.059 2568.915 2558.969 2544.938 2529.435 2515.71 2499.241 2482.897 2466.557 2450.043 2439.644 2432.957 2425.878 2415.254 2400.311 2382.54 2365.036 2345.752 2326.68 2309.757 2292.905 2282.618 2278.11 2278.468 2277.52 2271.93 2272.844 2280.558 2292.018 2286.125 2274.511 2259.443 2245.429 2237.859 2234.553 2223.756 2208.265 2204.448 2217.842 2234.033 2251.142 2267.421 2283.532 2300.806 2317.178 2334.966 2350.814 2367.386 2386.837 2406.089 2427.942 2446.704 2463.298 2484.386 2509.096 2530.28 2545.419 2541.104 2523.788 2505.179 2488.488 2471.343 2457.193 2443.793 2431.406 2418.256 2405.82 2390.599 2374.567 2359.14 2343.068 2327.531 2312.101 2294.505 2278.32 2261.96 2241.265 2222.694 2216.505 2231.302 2246.985 2266.222 2285.299 2300.988 2316.644 2330.707 2342.536 2357.63 2375.185 2397.304 2417.13 2429.351 2436.421 2436.424 2436.289 2440.354 2444.527 2437.738 2424.101 2409.467 2393.939 2378.673 2372.551 2375.073 2384.355 2386.993 2376.394 2358.663 2341.524 2324.88 2307.277 2280.536 2262.645 2250.732 2241.156 2233.995 2228.838 2222.686 2209.238 2196.46
1857.651 1845.094 1831.58 1827.032 1829.156 1840.688 1860.776 1881.213 1904.062 1923.563 1941.318 1960.943 1979.337 2002.701 2022.669 2030.444 2036.363 2050.569 2064.319 2079.08 2096.263 2111.446 2127.482 2141.924 2153.552 2164.954 2175.593 2187.707 2202.368 2215.736 2232.42 2249.502 2265.549 2284.966 2303.736 2321.69 2341.088 2358.418 2372.348 2375.054 2364.384 2346.519 2325.624 2308.42 2294.03 2281.118 2273.194 2266.678 2261.371 2256.727 2250.786 2245.232 2238.641 2233.348 2229.203 2225.377 2222.311 2220.202 2218.119 2215.901 2215.892 2216.034 2214.819 2214.611 2215.604 2216.884 2217.877 2222.018 2226.78 2231.901 2237.04 2239.953 2240.453 2235.813 2232.332 2232.082 2235.811 2241.953 2247.133 2248.885 2254.191 2262.752 2273.537 2287.283 2297.53 2300.279 2297.599 2297.377 2308.447 2325.775 2341.57 2359.312 2376.38 2390.079 2403.637 2414.923 2424.166 2435.038 2444.957 2451.862 2455.522 2458.599 2466.867 2479.048 2490.931 2504.916 2520.2 2533.905 2551.087 2568.379 2585.314 2604.967 2622.899 2639.887 2660.277 2680.082 2699.83 2718.744 2730.816 2736.852 2736.641 2737.58 2744.893 2754.382 2758.232 2756.718 2754.409 2752.168 2748.477 2746.731 2748.169 2749.378 2749.415 2746.365 2742.417 2739.54 2736.803 2733.501 2728.677 2721.106 2713.101 2705.321 2697.922 2692.754 2686.428 2676.84 2669.218 2664.674 2660.836 2656.375 2653.509 2650.94 2649.356 2654.385 2660.058 2667.901 2676.218 2691.195 2707.88 2719.816 2730.99 2745.809 2757.886 2771.175 2786.284 2803.119 2822.606 2838.449 2851.78 2863.514 2872.578 2873.804 2867.162 2857.691 2847.747 2836.9 2825.89 2811.993 2795.466 2779.384 2758.983 2735.944 2717.288 2698.455 2679.043 2660.923 2640.662 2621.732 2603.875 2585.654 2570.97 2556.875 2543.379 2533.167 2519.991 2508.227 2499.182 2488.499 2473.9 2460.477 2458.006 2465.742 2478.9 2494.124 2504.523 2517.082 2523.54 2519.917 2517.652 2526.641 2546.67 2572.063 2589.771 2597.448 2602.261 2605.249 2602.437 2590.674 2578.471 2561.322 2544.544 2529.871 2512.49 2494.178 2477.647 2465.603 2463.527 2460.306 2447.683 2432.163 2415.988 2396.622 2377.627 2358.48 2340.448 2326.341 2316.633 2312.548 2307.705 2305.428 2303.026 2298.279 2295.542 2300.378 2307.574 2299.004 2287.349 2276.033 2266.299 2259.508 2253.004 2241.536 2224.185 2213.957 2222.505 2236.763 2252.057 2267.761 2285.17 2302.979 2319.452 2337.991 2354.668 2371.562 2390.356 2408.884 2429.969 2451.084 2468.659 2488.138 2510.782 2531.193 2547.956 2544.073 2526.179 2506.109 2488.249 2469.939 2452.354 2435.949 2419.863 2402.841 2391.719 2380.051 2366.677 2352.246 2338.349 2324.054 2308.828 2292.626 2279.376 2263.461 2243.523 2229.478 2220.999 2236.723 2255.181 2271.787 2289.803 2308.084 2327.311 2343.842 2357.728 2370.854 2384.998 2405.927 2426.514 2441.577 2456.3 2461.656 2461.297 2461.314 2458.917 2446.13 2430.08 2417.011 2402.502 2389.968 2393.36 2399.166 2401.436 2397.949 2383.757 2364.983 2346.455 2327.191 2308.301 2287.018 2276.311 2271.491 2265.025 2256.354 2250.206 2236.908 2216.375 2199.199
1870.138 1858.146 1841.994 1831.723 1831.607 1841.539 1860.745 1879.855 1901.871 1922.834 1941.791 1961.94 1985.841 2020.057 2046.363 2057.111 2057.789 2062.714 2074.185 2089.121 2105.429 2120.592 2136.349 2152.275 2167.957 2183.188 2195.715 2207.025 2218.609 2230.504 2245.074 2258.85 2274.094 2291.397 2307.311 2323.391 2341.914 2359.262 2375.581 2384.666 2379.252 2364.917 2347.084 2331.094 2316.135 2303.086 2294.729 2285.852 2277.539 2271.059 2264.292 2257.756 2250.111 2242.599 2235.286 2228.053 2223.282 2220.775 2217.359 2214.92 2215.731 2217.487 2217.03 2218.157 2221.189 2224.445 2227.12 2231.181 2237.08 2243.505 2249.032 2251.96 2253.787 2248.449 2244.405 2244.556 2247.455 2252.793 2258.307 2261.013 2264.809 2270.633 2281.924 2296.366 2307.687 2313.612 2312.685 2307.238 2310.828 2324.8 2340.626 2358.599 2376.806 2391.698 2406.143 2418.906 2430 2441.972 2452.873 2461.718 2468.229 2471.983 2477.842 2486.717 2496.822 2508.814 2522.939 2536.194 2552.639 2569.828 2586.325 2605.601 2622.442 2638.769 2658.668 2677.604 2692.184 2701.549 2706.425 2708.433 2708.197 2710.69 2721.242 2731.839 2736.213 2734.75 2732.659 2730.984 2727.964 2727.176 2731.899 2735.518 2736.594 2738.242 2740.852 2743.136 2745.389 2745.281 2742.342 2737.054 2730.208 2723.325 2716.404 2711.174 2703.892 2694.931 2688.367 2684.611 2680.281 2675.414 2672.157 2670.751 2669.893 2673.361 2677.928 2685.037 2694.209 2704.484 2718.883 2731.401 2744.494 2760.834 2772.737 2784.125 2796.708 2811.607 2831.686 2848.1 2861.932 2875.485 2884.587 2886.882 2882.018 2873.078 2861.265 2846.879 2832.585 2815.758 2797.101 2779.933 2759.963 2737.926 2720.259 2702.298 2682.552 2663.161 2642.674 2624.406 2607.292 2591.235 2579.039 2568.369 2556.398 2547.482 2537.105 2526.704 2516.717 2503.427 2486.384 2474.023 2474.425 2483.748 2497.826 2513.135 2523.001 2535.022 2547.602 2549.849 2544.799 2542.468 2554.01 2576.869 2598.788 2614.247 2626.77 2630.504 2622.935 2606.315 2591.193 2572.71 2554.795 2538.84 2520.887 2503.936 2491.943 2485.646 2486.818 2481.606 2464.681 2448.225 2431.137 2411.661 2393.106 2371.69 2354.513 2345.25 2343.382 2343.945 2338.227 2330.68 2325.318 2322.711 2319.861 2322.976 2321.388 2311.279 2301.564 2295.875 2292.364 2285.38 2272.896 2257.252 2238.141 2225.2 2229.614 2241.841 2254.822 2266.944 2284.534 2302.348 2319.059 2337.66 2355.752 2373.226 2391.462 2408.993 2427.768 2448.523 2466.499 2486.397 2507.113 2526.728 2545.736 2546.276 2530.454 2509.73 2491.749 2473.187 2453.233 2435.745 2417.07 2397.433 2383.86 2369.695 2355.672 2341.43 2328.812 2316.029 2302.563 2289.114 2277.792 2262.016 2245.827 2234.77 2230.167 2244.589 2261.974 2278.901 2291.822 2307.915 2330.503 2350.189 2368.023 2384.598 2400.138 2420.975 2442.697 2457.574 2472.521 2483.521 2485.741 2481.272 2471.037 2455.36 2439.281 2426.972 2414.59 2406.317 2414.005 2423.087 2420.872 2411.65 2393.12 2373.609 2354.378 2333.681 2317.998 2309.588 2302.579 2293.68 2278.248 2261.58 2249.363 2230.289 2208.905 2192.389
1885.121 1870.007 1851.872 1837.548 1834.636 1845.339 1863.653 1882.625 1905.294 1925.981 1944.127 1964.501 1992.05 2029.235 2057.246 2072.175 2079.805 2085.735 2094.899 2107.439 2120.811 2133.646 2148.54 2163.12 2179.135 2196.54 2212.251 2226.524 2237.508 2247.892 2258.476 2269.722 2283.012 2297.436 2310.899 2324.666 2340.579 2355.61 2369.943 2381.72 2382.667 2375.755 2365.414 2355.004 2341.172 2328.746 2317.396 2303.586 2292.423 2283.273 2276.14 2270.112 2263.124 2255.898 2248.474 2242.247 2238.07 2236.154 2232.3 2229.338 2229.589 2230.826 2231.241 2232.974 2237.179 2240.814 2244.683 2247.444 2251.326 2256.635 2261.071 2264.677 2266.538 2262.504 2260.927 2262.867 2265.757 2269.85 2275.92 2280.861 2283.101 2289.011 2299.176 2310.809 2319.673 2324.713 2326.622 2325.388 2323.881 2329.726 2342.32 2358.447 2376.906 2391.149 2405.077 2418.352 2430.735 2443.979 2455.799 2466.883 2477.034 2483.961 2489.507 2496.739 2503.582 2513.815 2526.58 2539.275 2555.05 2571.553 2587.19 2605.318 2621.615 2637.49 2654.695 2668.496 2676.025 2677.824 2679.212 2681.208 2681.986 2685.235 2693.477 2702.542 2707.07 2706.516 2704.315 2703.264 2701.855 2702.26 2709.63 2713.573 2713.844 2718.512 2724.31 2730.161 2738.838 2746.178 2749.165 2748.486 2745.602 2741.455 2735.969 2730.375 2723.446 2716.578 2710.606 2705.885 2700.644 2695.972 2691.119 2689.023 2689.551 2692.535 2696.879 2703.038 2714.283 2722.816 2733.547 2746.173 2757.987 2773.606 2787.664 2800.637 2812.736 2825.863 2840.562 2854.066 2867.25 2882.96 2892.128 2895.47 2893.554 2885.173 2870.014 2849.994 2832.284 2812.785 2791.927 2775.022 2756.271 2736.272 2719.647 2702.302 2683.553 2665.378 2647.152 2633.496 2622.203 2609.955 2598.369 2587.538 2576.365 2567.19 2556.071 2543.547 2529.504 2513.823 2497.953 2489.486 2492.799 2503.918 2517.227 2530.682 2541.512 2553.266 2566.165 2574.025 2575.574 2568.597 2570.493 2585.516 2607.404 2628.869 2645.893 2648.222 2637.966 2619.8 2602.623 2583.957 2565.077 2548.447 2533.804 2524.482 2517.238 2513.578 2511.519 2499.675 2480.383 2463.712 2444.695 2423.392 2406.229 2383.492 2370.403 2368.261 2370.428 2373.199 2370.001 2359.26 2351.811 2348.637 2344.97 2345.517 2341.195 2330.354 2323.198 2321.844 2318.962 2308.309 2290.67 2270.978 2251.168 2237.905 2241.042 2256.383 2268.932 2270.922 2283.933 2303.311 2319.457 2335.827 2352.964 2370.087 2388.806 2406.217 2423.547 2442.095 2460.724 2480.829 2502.086 2522.274 2541.615 2544.691 2533.298 2514.522 2496.825 2478.597 2459.414 2443.539 2425.645 2408.18 2393.023 2375.761 2359.908 2345.875 2332.286 2317.65 2301.056 2286.246 2273.778 2257.219 2245.889 2242.245 2247.404 2260.403 2270.677 2285.893 2300.326 2312.48 2328.725 2348.06 2369.17 2390.248 2409.519 2431.97 2457.565 2479.039 2493.464 2503.948 2506.614 2496.495 2481.648 2466.19 2452.234 2441.845 2431.361 2425.938 2432.312 2444.296 2444.852 2433.487 2411.015 2390.142 2370.342 2351.02 2339.936 2333.634 2320.756 2304.463 2284.087 2263.413 2246.123 2225.026 2206.836 2194.481
1896.906 1877.791 1856.76 1841.531 1837.664 1849.641 1869.632 1886.906 1908.557 1928.715 1945.108 1964.461 1992.533 2028.563 2056.919 2075.285 2092.336 2104.599 2114.678 2124.681 2135.32 2144.723 2158.183 2171.799 2185.656 2202.109 2217.415 2230.359 2241.546 2250.603 2258.061 2266.946 2277.885 2290.054 2303.049 2316.071 2331.454 2345.538 2357.343 2367.067 2369.504 2367.466 2363.54 2358.583 2352.067 2346.554 2337.327 2322.271 2308.942 2298.276 2289.839 2283.72 2277.02 2269.297 2263.552 2259.542 2256.649 2254.306 2251.889 2249.13 2247.51 2247.629 2248.861 2250.589 2254.636 2257.735 2261.328 2263.361 2266.189 2269.543 2273.129 2277.609 2279.741 2278.294 2279.821 2284.88 2288.584 2291.381 2295.923 2301.23 2304.948 2311.86 2319.66 2327.732 2334.592 2337.554 2339.883 2342.579 2342.925 2344.144 2349.85 2360.59 2377.881 2392.938 2407.212 2419.604 2431.077 2444.854 2457.922 2470.517 2482.726 2491.894 2498.608 2506.724 2513.481 2522.037 2532.25 2542.875 2557.99 2573.18 2587.67 2604.717 2619.382 2632.43 2643.946 2651.047 2653.605 2652.072 2652.661 2655.554 2659.27 2662.734 2668.557 2675.85 2678.705 2678.439 2676.493 2674.896 2675.132 2676.8 2683.384 2690.117 2691.065 2698.028 2704.399 2710.487 2720.948 2733.179 2743.826 2750.683 2755.512 2756.624 2754.177 2748.566 2741.626 2737.516 2732.581 2726.411 2721.734 2719.287 2714.184 2708.976 2707.847 2710.158 2714.418 2722.618 2732.487 2739.829 2749.819 2761.326 2770.805 2784.118 2799.256 2814.098 2827.378 2837.792 2846.533 2854.941 2864.138 2876.423 2886.389 2890.751 2891.118 2886.404 2871.583 2849.458 2830.609 2811.001 2791.135 2776.362 2759.027 2740.77 2725.028 2706.889 2688.57 2672.984 2660.006 2651.272 2642.868 2631.094 2619.053 2608.641 2598.61 2587.737 2573.048 2556.264 2539.412 2522.58 2509.942 2505.505 2510.122 2521.72 2534.229 2548.225 2560.115 2570.774 2582.182 2593.142 2601.808 2598.155 2594.12 2598.692 2614.531 2637.979 2655.603 2657.493 2648.17 2630.838 2611.735 2592.213 2574.221 2559.979 2552.038 2551.188 2546.791 2539.964 2530.47 2514.044 2495.423 2477.93 2456.929 2433.601 2413.54 2395.022 2389.156 2393.002 2395.818 2396.389 2396.738 2388.875 2380.975 2374.278 2368.771 2368.884 2364.638 2355.896 2348.74 2344.768 2334.989 2319.786 2301.213 2281.331 2261.07 2248.5 2253.905 2274.695 2288.301 2285.653 2288.941 2307.532 2322.676 2337.228 2352.423 2368.13 2387.224 2405.23 2422.815 2440.814 2458.504 2479.085 2500.83 2521.84 2539.221 2541.278 2532.413 2517.164 2500.655 2483.877 2467.106 2452.586 2437.142 2422.19 2407.778 2388.745 2371.402 2355.299 2337.464 2319.794 2301.112 2283.791 2269.974 2255.099 2246.574 2253.252 2265.895 2279.788 2288.972 2297.797 2311.789 2324.646 2334.76 2348.591 2368.786 2393.414 2413.353 2435.364 2461.804 2490.649 2510.455 2522.263 2520.672 2506.774 2492.828 2481.137 2469.825 2460.489 2450.868 2445.246 2449.583 2461.555 2466.057 2453.016 2428.012 2407.916 2388.514 2371.21 2358.074 2342.643 2324.95 2307.957 2288.513 2267.201 2248.568 2229.878 2214.005 2203.115
1904.198 1883.464 1860.819 1844.926 1840.381 1849.293 1869.242 1885.648 1905.198 1924.7 1939.717 1957.399 1983.839 2020.166 2052.167 2071.792 2087.708 2102.34 2114.615 2123.606 2131.093 2139.76 2152.43 2166.228 2178.85 2193.267 2205.124 2214.042 2223.496 2232.613 2240.568 2248.351 2257.65 2268.948 2282.572 2296.559 2312.524 2327.601 2341.037 2349.454 2349.923 2347.661 2345.822 2343.216 2341.603 2345.913 2341.58 2338.286 2329.101 2317.98 2306.96 2298.658 2291.189 2283.821 2278.442 2276.949 2274.86 2273.008 2271.534 2271.577 2269.378 2268.257 2269.065 2271.913 2276.271 2278.417 2280.242 2282.086 2283.983 2284.559 2286.239 2290.665 2294.012 2295.764 2300.198 2308.124 2313.859 2316.886 2319.631 2322.537 2328.258 2335.66 2342.323 2348.727 2353.105 2354.54 2355.358 2357 2358.21 2358.153 2361.466 2368.541 2381.699 2395.769 2410.008 2421.904 2433.081 2446.825 2460.042 2473.487 2486.918 2497.499 2506.249 2515.554 2523.414 2531.634 2539.881 2549.582 2562.862 2576.974 2590.223 2603.267 2612.958 2620.974 2626.817 2628.462 2628.615 2628.619 2629.001 2631.524 2636.048 2639.161 2644.788 2651.004 2652.459 2652.307 2651.817 2649.793 2651.176 2652.612 2655.462 2662.377 2666.84 2674.581 2682.356 2690.155 2701.515 2715.209 2728.728 2741.479 2754.514 2760.174 2760.259 2756.853 2752.086 2750.02 2746.145 2740.404 2736.895 2736.278 2733.68 2729.673 2729.349 2732.415 2735.713 2743.073 2749.345 2756.053 2767.33 2776.729 2786.011 2797.259 2809.916 2821.644 2831.421 2837.221 2842.274 2846.475 2852.894 2860.135 2866.004 2871.766 2876.258 2877.498 2868.954 2851.177 2834.556 2816.822 2799.138 2785.823 2769.345 2749.73 2734.212 2716.514 2700.369 2688.392 2681.614 2675.26 2664.097 2651.295 2640.103 2629.45 2617.556 2602.835 2584.24 2564.843 2548.017 2532.204 2524.301 2525.241 2527.683 2536.564 2550.291 2565.416 2576.96 2588.928 2600.507 2609.641 2621.845 2626.168 2622.382 2618.958 2625.73 2645.402 2662.903 2665.973 2655.056 2637.578 2620.189 2602.936 2586.094 2575.441 2573.374 2572.829 2563.978 2550.076 2533.543 2514.378 2496.455 2479.49 2460.481 2436.603 2418.399 2411.686 2412.901 2418.492 2423.02 2422.026 2422.442 2421.439 2413.81 2402.062 2397.071 2396.615 2391.637 2381.278 2370.479 2357.318 2340.888 2322.85 2304.557 2286.135 2268.99 2259.672 2268.827 2291.242 2303.156 2306.226 2313.073 2323.088 2330.813 2342.74 2357.155 2373.766 2391.844 2407.949 2425.404 2444.147 2461.467 2482.593 2504.102 2523.444 2534.551 2531.671 2522.698 2511.027 2497.256 2482.468 2466.668 2453.145 2440.161 2426.175 2412.691 2395.219 2378.769 2361.353 2342.284 2326.141 2310.187 2292.478 2276.503 2259.562 2253.145 2264.314 2280.786 2295.817 2309.321 2317.841 2324.194 2337.136 2351.152 2362.061 2375.263 2395.497 2413.499 2434.397 2458.348 2483.645 2509.601 2531.042 2533.407 2521.337 2510.483 2501.666 2491.598 2481.802 2472.177 2467.399 2470.909 2479.66 2478.034 2462.639 2438.407 2420.347 2403.392 2382.906 2362.914 2340.653 2319.119 2302.456 2285.768 2266.929 2251.467 2236.109 2221.606 2212.856
1908.837 1888.332 1866.779 1848.532 1841.195 1844.788 1861.802 1877.576 1895.82 1913.166 1929.184 1947.779 1973.731 2010.289 2042.389 2058.32 2071.187 2085.385 2097.896 2104.388 2112.781 2122.865 2134.821 2148.326 2160.975 2173.582 2182.168 2190.068 2198.397 2206.628 2215.126 2224.614 2234.745 2246.534 2260.899 2277.668 2296.514 2313.477 2326.49 2331.102 2329.475 2327.031 2325.078 2323.51 2324.4 2328.364 2332.61 2341.042 2343.077 2337.372 2325.972 2315.685 2306.779 2298.718 2294.259 2294.907 2297.383 2295.796 2295.054 2294.695 2294.158 2293.167 2293.306 2296.277 2300.544 2302.38 2303.474 2304.844 2304.886 2304.067 2304.971 2307.456 2311.053 2314.838 2320.374 2328.973 2336.44 2342.64 2345.701 2349.63 2356.556 2362.877 2368.137 2374.226 2377.197 2376.052 2375.399 2374.99 2373.589 2372.296 2373.971 2377.969 2386.819 2398.84 2413.916 2425.6 2435.008 2447.306 2460.489 2473.88 2488.497 2501.413 2512.732 2523.341 2532.652 2540.765 2548.411 2557.462 2568.143 2578.929 2587.416 2594.015 2599.412 2604.001 2606.121 2604.814 2602.636 2604.758 2606.99 2609.27 2613.426 2616.445 2620.464 2625.103 2625.744 2625.39 2625.452 2625.13 2626.915 2627.67 2630.968 2636.652 2642.429 2650.75 2659.965 2669.948 2682.97 2697.345 2711.938 2726.635 2739.576 2744.931 2744.489 2743.484 2742.761 2741.502 2739.086 2736.937 2735.355 2735.798 2736.935 2737.623 2738.83 2741.784 2744.861 2751.431 2755.582 2761.573 2771.488 2781.255 2791.511 2803.072 2811.783 2815.212 2819.524 2820.61 2822.843 2828.589 2833.29 2837.548 2843.751 2853.193 2863.319 2869.279 2869.46 2858.813 2843.837 2828.296 2810.656 2796.145 2780.118 2761.687 2746.966 2731.61 2720.28 2712.226 2705.446 2696.817 2685.639 2673.993 2662.354 2647.202 2629.606 2611.803 2592.221 2572.23 2556.061 2544.288 2545.302 2549.958 2548.6 2551.537 2562.35 2576.824 2589.471 2605.775 2619.406 2628.779 2642.521 2650.657 2651.195 2647.481 2646.132 2656.889 2674.743 2681.818 2670.657 2653.996 2638.414 2622.439 2607.421 2600.666 2597.25 2587.507 2572.479 2554.454 2536.031 2516.464 2496.947 2479.44 2459.788 2439.771 2428.768 2432.757 2441.458 2444.785 2453.963 2455.404 2451.146 2452.029 2448.855 2435.382 2429.326 2425.017 2413.24 2396.817 2381.36 2365.364 2350.607 2334.572 2315.7 2296.895 2282.492 2277.34 2285.685 2305.541 2319.404 2323.877 2335.682 2343.655 2345.474 2353.321 2366.25 2383.55 2401.604 2416.534 2433.219 2451.665 2467.367 2487.199 2506.331 2520.914 2526.973 2519.97 2509.528 2497.552 2485.152 2473.112 2458.189 2444.69 2432.562 2419.359 2407.55 2393.953 2379.574 2363.358 2348.28 2334.487 2317.289 2297.625 2281.021 2264.276 2259.983 2273.49 2291.437 2308.385 2323.468 2337.385 2343.253 2350.683 2365.704 2380.041 2390.444 2403.052 2417.179 2439.079 2460.715 2478.967 2503.918 2531.429 2547.298 2545.573 2536.034 2524.21 2511.823 2500.785 2492.792 2492.629 2495.961 2495.862 2480.505 2464.423 2444.429 2427.096 2410.08 2388.317 2362.193 2334.581 2311.773 2296.237 2282.834 2268.881 2254.848 2239.104 2227.093 2224.653
1914.783 1895.657 1876.275 1856.062 1845.18 1842.727 1852.666 1866.954 1884.251 1901.731 1919.43 1939.129 1962.598 1995.544 2024.2 2040.416 2055.303 2067.985 2075.598 2080.504 2091.422 2103.903 2118.055 2132.268 2143.592 2152.703 2159.223 2166.375 2175.054 2183.516 2192.216 2203.452 2214.566 2229.125 2246.706 2265.512 2285.781 2301.459 2310.298 2311.659 2309.546 2307.9 2305.37 2304.609 2309.238 2314.35 2322.434 2334.282 2347.525 2353.166 2344.931 2333.827 2324.042 2314.827 2311.795 2314.365 2319.476 2319.71 2318.795 2317.172 2317.166 2318.521 2319.695 2321.054 2323.213 2325.425 2326.996 2328.137 2328.037 2328.844 2327.671 2329.957 2333.069 2337.798 2343.715 2351.593 2358.225 2364.001 2368.95 2375.877 2383.993 2390.395 2396.244 2402.197 2403.728 2400.137 2396.73 2394.204 2392.621 2392.682 2393.637 2393.784 2395.521 2403.977 2417.422 2430.068 2438.494 2449.976 2463.456 2477.366 2492.105 2505.071 2517.506 2529.367 2539.523 2548.662 2557.526 2563.934 2569.206 2573.328 2575.449 2577.638 2581.494 2585.961 2586.208 2583.661 2581.209 2582.917 2586.022 2588.359 2593.058 2596.708 2599.438 2602.686 2603.163 2602.598 2602.875 2603.112 2604.693 2605.781 2610.844 2616.295 2621.992 2630.774 2641.288 2652.681 2665.929 2680.508 2695.977 2712.425 2723.209 2725.007 2722.688 2721.646 2721.863 2721.985 2720.803 2720.569 2721.262 2723.505 2725.467 2728.436 2731.276 2733.793 2736.242 2741.08 2744.583 2749.599 2758.155 2770.296 2783.366 2795.588 2799.578 2797.311 2798.294 2798.168 2799.928 2808.361 2815.012 2819.936 2827.535 2837.408 2850.027 2861.083 2866.507 2863.226 2851.768 2838.137 2821.41 2805.924 2789.397 2772.753 2760.113 2748.412 2740.259 2734.816 2725.896 2714.563 2704.093 2690.995 2673.747 2655.138 2634.62 2616.523 2596.605 2578.127 2565.516 2561.203 2570.17 2574.494 2569.391 2565.429 2570.61 2584.409 2599.725 2618.337 2634.219 2646.028 2662.187 2672.606 2677.963 2676.26 2669.349 2672.26 2687.424 2698.938 2691.731 2675.28 2659.821 2643.952 2633.277 2629.993 2623.227 2608.614 2590.955 2571.755 2553.094 2532.655 2512.172 2491.148 2469.231 2453.544 2448.078 2453.612 2466.697 2469.81 2478.707 2484.785 2481.152 2479.395 2479.241 2467.371 2456.104 2444.309 2427.729 2410.377 2396.869 2381.696 2365.831 2348.059 2325.646 2305.778 2294.464 2294.632 2302.401 2320.192 2337.591 2343.708 2353.745 2359.936 2361.277 2365.726 2376.721 2392.488 2409.92 2423.964 2441.415 2462.035 2477.777 2494.375 2509.729 2517.208 2517.5 2508.037 2496.966 2483.449 2471.557 2459.431 2445.589 2431.867 2418.43 2405.356 2393.598 2380.676 2366.098 2352.815 2340.899 2329.974 2314.267 2294.436 2279.205 2267.52 2264.451 2274.441 2289.91 2304.944 2319.658 2340.713 2359.199 2366.822 2375.753 2389.082 2403.461 2417.519 2429.83 2446.509 2466.477 2482.382 2505.152 2530.585 2554.275 2564.475 2555.331 2541.909 2528.485 2517.795 2512.057 2512.922 2511.943 2499.009 2476.414 2459.186 2440.901 2423.635 2405.973 2381.755 2355.056 2330.16 2311.016 2299.658 2289.795 2276.06 2262.317 2245.167 2233.668 2233.104
1924 1906.695 1888.883 1870.955 1856.679 1847.607 1848.253 1856.437 1867.385 1883.918 1906.205 1928.341 1947.171 1968.52 1991.323 2014.031 2034.597 2047.497 2051.166 2058.099 2070.027 2085.2 2102.482 2115.266 2123.08 2128.617 2134.619 2140.7 2148.693 2157.556 2169.486 2183.737 2197.59 2217.623 2237.643 2255.71 2274.378 2286.525 2291.368 2290.822 2289.061 2288.278 2286.26 2285.658 2294.461 2302.777 2312.781 2325.709 2342.124 2354.293 2353.651 2347.602 2341.438 2335.699 2332.364 2332.94 2338.839 2341.564 2340.254 2340.208 2341.069 2343.324 2344.859 2346.445 2349.304 2350.531 2354.3 2356.411 2357.112 2357.647 2356.212 2356.733 2358.494 2363.588 2370.524 2378.558 2384.832 2390.125 2394.783 2400.056 2407.316 2414.409 2420.872 2426.897 2427.319 2425.211 2420.678 2417.097 2416.174 2417.333 2418.242 2417.352 2416.347 2419.305 2426.413 2437.168 2446.151 2456.723 2470.233 2484.29 2498.542 2511.702 2523.967 2536.668 2546.771 2556.132 2562.212 2563.594 2562.537 2559.835 2558.393 2559.024 2563.116 2567.782 2566.643 2562.53 2561.364 2562.861 2565.825 2568.148 2570.823 2574.252 2577.251 2580.081 2580.87 2579.809 2580.02 2580.902 2582.579 2584.584 2589.643 2594.983 2602.19 2611.926 2623.211 2634.477 2648.334 2662.919 2678.386 2695.66 2706.199 2704.793 2700.548 2698.995 2699.063 2699.241 2697.53 2696.802 2699.298 2703.215 2705.814 2708.353 2710.318 2712.07 2712.679 2715.668 2719.722 2727.614 2738.423 2752.177 2766.784 2777.489 2779.76 2776.661 2775.905 2776.163 2777.694 2786.417 2794.576 2800.431 2808.811 2819.523 2833.24 2846.851 2857.263 2861.445 2856.917 2845.875 2831.319 2816.294 2800.172 2784.188 2775.782 2769.769 2763.599 2756.561 2744.678 2730.66 2716.906 2699.245 2679.579 2659.454 2640.253 2623.343 2603.892 2587.966 2582.451 2584.619 2593.331 2600.112 2595.628 2585.428 2583.384 2592.141 2607.47 2626.795 2644.048 2658.708 2676.641 2691.262 2700.737 2702.634 2697.939 2695.507 2703.209 2713.332 2708.456 2692.614 2677.322 2663.879 2657.933 2654.02 2641.449 2623.516 2604.573 2584.559 2566.008 2544.545 2522.458 2502.556 2485.594 2479.869 2479.388 2479.085 2485.671 2494.357 2503.239 2510.803 2511.283 2507.189 2507.215 2497.796 2483.499 2469.844 2449.614 2433.217 2419.981 2400.511 2379.894 2360.362 2335.182 2313.718 2305.682 2309.504 2319.316 2335.809 2353.76 2364.202 2370.531 2373.392 2376.044 2379.199 2389.083 2402.912 2419.208 2434.718 2451.66 2470.53 2486.722 2504.257 2516.517 2518.183 2510.181 2497.631 2485.343 2470.489 2457.545 2444.119 2431.381 2418.613 2402.989 2388.012 2373.968 2361.57 2348.981 2336.329 2323.013 2313.98 2304.904 2293.471 2284.905 2278.005 2275.758 2277.949 2282.58 2289.671 2304.097 2330.283 2356.654 2373.017 2385.046 2396.995 2410.336 2425.987 2441.668 2458.117 2473 2487.604 2507.245 2529.841 2552.175 2571.978 2572.639 2561.046 2549.276 2538.171 2529.8 2520.326 2505.871 2485.133 2463.129 2443.841 2425.31 2409.151 2392.261 2370.887 2352.725 2337.284 2324.228 2314.607 2303.644 2285.058 2269.689 2253.585 2244.208 2240.698
1935.329 1921.22 1906.334 1891.474 1876.525 1862.342 1852.201 1852.038 1855.604 1865.182 1885.341 1908.898 1926.479 1938.986 1952.466 1973.645 2000.395 2017.203 2023.748 2037.959 2054.87 2071.184 2086.18 2094.069 2098.87 2104.039 2110.537 2116 2123.65 2134.81 2151.499 2170.614 2187.885 2209.769 2229.832 2246.071 2260.257 2267.464 2269.648 2268.933 2267.867 2266.865 2265.757 2268.01 2280.295 2290.817 2302.146 2317.889 2333.003 2342.793 2343.523 2340.548 2337.915 2338.447 2342.063 2343.368 2347.614 2348.526 2347.311 2351.406 2354.678 2360.954 2366.414 2371.151 2376.225 2378.373 2382.045 2385.449 2385.793 2385.079 2383.996 2384.765 2385.274 2388.488 2396.05 2405.248 2411.939 2418.184 2423.198 2426.168 2430.849 2436.274 2441.577 2446.716 2450.393 2450.89 2447.17 2442.773 2441.059 2442.379 2443.612 2443.136 2442.864 2444.401 2445.036 2449.459 2456.561 2466.466 2477.468 2488.388 2502.089 2515.163 2527.618 2540.121 2550.103 2556.696 2557.242 2553.335 2547.103 2540.845 2537.392 2537.561 2543.163 2549.289 2547.97 2542.258 2540.552 2541.222 2543.71 2546.315 2548.348 2551.647 2554.857 2557.177 2557.994 2557.544 2557.26 2558.097 2559.9 2563.097 2568.256 2573.368 2582.958 2594.232 2606.299 2617.091 2631.049 2645.41 2659.103 2673.242 2682.525 2681.245 2675.645 2673.719 2674.852 2675.511 2673.237 2672.299 2673.537 2676.558 2680.921 2683.428 2684.96 2688.018 2689.884 2693.025 2698.455 2707.636 2719.996 2733.949 2748.39 2756.345 2756.611 2754.433 2753.194 2754.288 2755.736 2762.592 2772.151 2779.734 2788.923 2801.507 2816.452 2829.447 2844.075 2855.979 2859.734 2853.426 2839.53 2825.76 2811.675 2798.344 2792.41 2791.412 2785.957 2776.572 2760.29 2742.239 2725.173 2705.712 2687.369 2667.626 2648.649 2632.087 2613.573 2603.67 2605.057 2610.861 2616.45 2623.031 2621.144 2612.598 2604.719 2604.929 2616.284 2633.711 2650.575 2667.34 2686.924 2703.756 2717.843 2726.898 2728.355 2723.047 2723.642 2727.705 2721.549 2706.456 2692.803 2682.377 2672.116 2659.711 2641.328 2622.497 2604.458 2585.194 2566.779 2546.438 2526.054 2512.39 2506.6 2508.95 2513.661 2508.425 2504.964 2516.312 2528.341 2535.464 2540.788 2538.236 2533.338 2521.659 2505.479 2493.376 2476.537 2462.703 2446.418 2421.138 2397.362 2378.042 2351.434 2329.991 2323.09 2327.991 2338.771 2353.765 2368.998 2382.562 2387.531 2389.496 2394.858 2400.468 2407.793 2417.122 2430.553 2446.111 2463.284 2482.066 2497.64 2514.605 2521.534 2518.763 2505.917 2491.106 2476.488 2459.365 2444.711 2431.323 2418.146 2406.661 2390.989 2372.878 2358.434 2348.225 2340.385 2332.736 2320.529 2311.545 2305.758 2299.404 2294.567 2291.654 2295.533 2297.364 2291.04 2287.772 2296.767 2322.068 2349.717 2369.988 2388.491 2404.773 2419.645 2433.817 2448.348 2467.658 2485.5 2498.953 2513.273 2532.164 2552.99 2579.201 2592.01 2581.54 2567.062 2551.03 2534.332 2515.413 2496.957 2475.775 2456.369 2438.03 2419.23 2401.977 2385.912 2371.32 2362 2353.684 2341.346 2327.623 2310.152 2284.258 2270.114 2263.877 2260.956 2253.653
1952.389 1938.87 1924.138 1909.061 1896.082 1882.158 1866.987 1859.396 1856.563 1859.038 1867.494 1881.322 1896.755 1909.595 1921.192 1936.264 1957.023 1976.915 1995.273 2022.913 2043.937 2057.4 2067.056 2071.441 2075.166 2080.85 2087.308 2093.922 2105.623 2122.417 2143.703 2166.288 2183.725 2203.324 2220.675 2233.455 2243.031 2247.702 2249.456 2249.445 2247.974 2247.704 2248.615 2253.965 2268.006 2280.604 2293.839 2310.923 2322.864 2327.814 2326.897 2323.781 2321.578 2325.04 2334.124 2342.483 2346.794 2345.111 2340.399 2344.686 2349.793 2360.787 2372.46 2382.205 2391.426 2399.041 2405.284 2410 2411.927 2411.917 2410.481 2411.525 2412.057 2414.52 2421.087 2430.302 2438.177 2445.434 2451.326 2453.396 2456.663 2458.541 2461.064 2465.29 2470.8 2472.625 2471.062 2467.875 2466.235 2466.888 2468.171 2467.922 2466.33 2467.73 2467.69 2467.725 2470.226 2476.198 2482.993 2489.92 2501.796 2514.288 2526.871 2539.063 2547.689 2549.509 2544.107 2537.557 2528.7 2521.097 2516.002 2516.042 2522.031 2528.878 2529.165 2523.529 2520.036 2520.732 2523.773 2525.934 2528.27 2531.964 2535.073 2536.581 2536.985 2536.751 2536.084 2537.252 2539.633 2543.207 2549.127 2555.755 2565.717 2577.309 2590.193 2600.903 2613.707 2627.442 2639.377 2649.634 2655.77 2655.263 2651.019 2648.732 2649.687 2651.346 2650.27 2649.694 2650.333 2652.774 2657.288 2659.261 2661.615 2666.055 2669.592 2674.76 2681.313 2691.519 2706.099 2721.361 2734.457 2740.031 2737.05 2732.979 2730.731 2733.11 2736.379 2742.003 2751.608 2761.914 2773.003 2786.867 2801.317 2813.099 2828.353 2844.893 2854.046 2853.204 2842.739 2832.326 2821.154 2812.032 2807.684 2805.017 2798.144 2787.91 2770.229 2751.086 2733.103 2713.27 2695.469 2676.332 2658.594 2642.408 2626.713 2622.28 2628.371 2638.141 2642.524 2644.995 2642.546 2635.92 2625.867 2621.995 2631.289 2644.967 2658.555 2674.516 2694.448 2711.558 2729.711 2746.505 2754.459 2750.497 2746.389 2744.53 2736.021 2722.339 2710.499 2696.517 2679.321 2661.803 2641.869 2623.378 2605.602 2587.105 2570.418 2554.497 2539.752 2530.134 2527.609 2535.352 2543.169 2540.889 2533.83 2536.693 2550.133 2560.553 2566.881 2563.706 2553.611 2536.929 2518.719 2506.648 2491.929 2475.619 2457.029 2431.278 2408.336 2386.971 2362.693 2348.117 2344.686 2347.803 2356.761 2370.62 2384.013 2398.384 2403.993 2407.542 2413.456 2421.656 2430.352 2436.145 2444.344 2456.253 2473.108 2492.928 2509.552 2522.277 2521.865 2514.152 2501.408 2485.695 2469.499 2450.897 2435.568 2422.782 2410.367 2398.971 2385.547 2370.697 2362.361 2357.23 2349.26 2340.287 2327.803 2317.736 2312.33 2308.289 2305.681 2307.312 2314.356 2314.785 2305.027 2296.843 2299.956 2320.691 2347.23 2368.534 2388.65 2407.432 2427.049 2444.188 2457.544 2475.172 2496.033 2511.268 2523.684 2538.021 2557.488 2585.103 2603.348 2593.257 2573.048 2552.124 2531.731 2512.934 2496.644 2477.49 2459.002 2442.199 2423.19 2406.355 2393.647 2385.018 2378.476 2368.805 2350.487 2331.216 2306.768 2281.117 2275.266 2278.343 2278.584 2268.286
1977.209 1962.092 1944.696 1928.417 1915.816 1903.935 1889.703 1878.625 1869.749 1865.916 1866.262 1869.313 1875.661 1883.313 1893.988 1906.735 1922.729 1940.331 1963.302 1997.947 2022.933 2034.951 2042.78 2047.383 2051.6 2056.445 2064.159 2077.539 2096.265 2116 2137.723 2159.657 2176.429 2193.029 2206.226 2215.283 2221.939 2225.612 2227.287 2228.188 2227.699 2229.293 2233.587 2242.785 2257.46 2272.056 2287.445 2303.155 2310.587 2310.792 2308.688 2306.595 2305.787 2310.362 2320.014 2332.831 2336.526 2333.72 2327.3 2329.495 2334.914 2347.547 2362.479 2375.64 2388.969 2401.395 2412.664 2422.073 2428.68 2432.804 2434.769 2437.154 2439.759 2442.925 2448.25 2455.834 2463.344 2470.475 2477.006 2480.381 2483.749 2483.842 2484.65 2487.382 2493.014 2495.511 2495.288 2494.234 2492.906 2492.411 2493.25 2491.399 2489.284 2489.699 2490.467 2489.19 2488.018 2489.034 2491.239 2495.292 2503.429 2514.408 2525.835 2536.389 2542.781 2539.194 2528.09 2519.748 2509.922 2500.806 2494.387 2494.682 2501.334 2508.044 2509.308 2504.547 2499.469 2500.121 2502.46 2505.374 2508.146 2511.672 2514.585 2515.143 2515.525 2515.41 2515.259 2516.775 2518.688 2522.739 2529.974 2537.771 2547.526 2559.128 2572.059 2583.14 2594.499 2606.43 2616.354 2624.682 2629.842 2630.685 2626.457 2623.857 2623.718 2624.588 2624.5 2625.011 2626.433 2629.21 2633.949 2636.315 2638.372 2641.75 2646.618 2655.275 2665.401 2679.206 2696.566 2714.283 2725.433 2726.78 2720.623 2713.822 2708.5 2709.359 2717.306 2723.96 2732.412 2744.37 2757.942 2770.902 2785.106 2798.975 2813.449 2829.807 2841.625 2845.108 2840.294 2834.171 2825.137 2818.077 2814.186 2810.645 2804.726 2794.705 2778.72 2761.597 2743.717 2721.94 2703.856 2686.272 2671.521 2656.995 2645.118 2645.609 2653.366 2664.029 2670.296 2670.28 2666.338 2658.438 2646.872 2641.459 2650.925 2663.564 2674.323 2686.017 2701.83 2718.579 2738.164 2759.58 2775.154 2778.203 2772.619 2763.766 2751.675 2735.848 2721.696 2702.881 2683.137 2665.421 2646.618 2628.673 2611.086 2593.321 2580.449 2572.079 2563.541 2557.581 2551.706 2559.279 2570.166 2575.098 2569.649 2563.877 2570.672 2585.674 2591.28 2581.593 2566.903 2547.166 2527.466 2512.199 2493.775 2473.797 2454.466 2431.056 2409.912 2388.711 2371.486 2366.06 2368.626 2370.441 2375.013 2385.777 2398.811 2412.06 2421.377 2429.555 2434.481 2440.574 2450.31 2457.037 2462.333 2470.602 2485.345 2502.914 2520.083 2525.273 2518.749 2507.46 2494.454 2479.343 2464.105 2447.936 2435.522 2424.967 2414.798 2405.354 2395.196 2387.654 2382.874 2375.592 2363.54 2349.015 2336.378 2327.966 2325.963 2327.337 2326.894 2328.883 2330.626 2327.223 2315.07 2305.3 2307.031 2324.192 2346.92 2369.375 2390.776 2409.469 2428.52 2450.674 2470.001 2488.096 2505.127 2519.038 2535.013 2548.922 2565.542 2588.807 2605.561 2595.702 2573.072 2552.762 2533.801 2515.283 2498.547 2480.787 2464.14 2450.713 2436.607 2423.508 2412.29 2402.142 2390.46 2375.777 2351.451 2328.107 2304.46 2290.989 2294.956 2299.185 2292.759 2277.927
1995.236 1984.984 1968.939 1952.051 1938.978 1926.133 1911.677 1899.572 1890.13 1884.193 1880.936 1877.949 1878.366 1880.724 1885.905 1891.367 1901.792 1916.629 1935.086 1959.505 1985.819 2003 2015.779 2022.963 2029.464 2037.754 2050.675 2070.333 2091.866 2110.838 2129.885 2148.615 2163.768 2178.324 2187.708 2194.677 2200.115 2203.436 2205.405 2207.438 2208.658 2213.077 2221.723 2233.735 2249.265 2266.204 2281.526 2294.15 2297.402 2293.474 2290.719 2290.097 2292.002 2299.574 2309.961 2320.429 2320.658 2316.188 2310.637 2312.955 2319.628 2333.256 2347.9 2362.424 2377.457 2390.668 2404.016 2416.358 2426.276 2434.382 2441.237 2446.902 2453.571 2459.119 2464.058 2470.259 2476.79 2483.799 2492.67 2499.5 2504.564 2507.864 2509.927 2512.805 2518.124 2520.262 2520.34 2518.953 2517.416 2516.829 2517.196 2515.67 2515.514 2514.509 2513.433 2510.53 2506.696 2503.57 2501.701 2500.623 2504.757 2513.482 2522.666 2531.554 2535.828 2528.11 2514.331 2502.882 2491.729 2481.186 2473.473 2473.881 2481.753 2488.511 2490.511 2486.243 2480.172 2480.038 2481.86 2485.756 2489.346 2493.019 2495.064 2495.054 2495.156 2494.986 2495.371 2497.122 2499.323 2503.635 2512.343 2520.573 2530.366 2542.05 2553.896 2564.439 2575.343 2585.155 2592.6 2598.648 2604.663 2607.778 2603.216 2600.481 2599.829 2599.903 2599.506 2600.713 2601.927 2604.55 2609.344 2613.217 2615.736 2619.006 2626.517 2639.116 2653.828 2671.229 2690.192 2708.224 2717.985 2715.93 2707.958 2698.354 2689.236 2686.57 2696.371 2706.479 2716.299 2727.799 2742.708 2755.368 2769.924 2785.452 2800.303 2815.108 2827.547 2834.545 2835.813 2832.859 2825.698 2819.634 2815.746 2811.906 2807.249 2798.075 2784.49 2770.169 2753.382 2731.886 2714.728 2699.97 2687.007 2674.425 2663.986 2667.413 2677.226 2687.631 2694.704 2693.742 2687.619 2678.388 2667.125 2661.971 2671.207 2685.753 2696.341 2703.335 2714.783 2729.705 2746.739 2767.063 2787.101 2797.767 2792.677 2778.476 2761.299 2741.063 2724.397 2704.014 2685.932 2669.822 2652.514 2634.986 2619.427 2606.116 2598.629 2594.198 2586.356 2582.155 2578.254 2579.645 2590.459 2603.696 2602.277 2594.569 2592.578 2603.841 2608.097 2594.001 2575.867 2554.6 2533.801 2516.004 2495.709 2475.124 2455.236 2433.175 2412.121 2394.439 2385.509 2387.675 2393.809 2396.68 2398.416 2402.374 2414.823 2425.316 2436.863 2451.677 2458.301 2460.745 2466.604 2475.049 2483.311 2488.84 2499.674 2514.946 2528.899 2528.763 2519.24 2506.228 2491.051 2476.57 2464.699 2454.139 2445.527 2435.996 2427.004 2421.654 2415.449 2408.209 2399.819 2385.095 2368.278 2355.703 2350.845 2347.159 2347.194 2351.564 2352.757 2351.227 2346.514 2338.308 2322.889 2311.335 2315.499 2330.727 2348.659 2369.751 2392.075 2411.629 2429.09 2451.42 2474.982 2496.989 2516.166 2528.305 2545.375 2561.78 2577.967 2596.055 2606.494 2595.216 2574.129 2556.368 2539.382 2520.416 2503.647 2488.623 2474.348 2464.209 2453.923 2439.669 2424.903 2407.732 2389.734 2371.206 2344.683 2322.89 2312.742 2316.134 2321.266 2315.682 2297.82 2284.108
2001.502 1998.642 1989.544 1977.168 1964.795 1947.585 1932.468 1921.529 1913.59 1907.585 1902.813 1898.564 1898.914 1900.234 1899.489 1895.282 1896.475 1904.51 1914.413 1926.434 1945.17 1966.686 1988.314 2001.516 2015.459 2031.88 2048.134 2067.276 2085.924 2101.806 2118.652 2134.989 2147.568 2160.877 2168.361 2173.887 2179.141 2182.449 2184.991 2188.274 2191.865 2199.934 2212.266 2225.534 2242.215 2260.891 2274.023 2281.823 2281.562 2276.145 2273.083 2273.369 2278.214 2291.012 2301.869 2307.696 2304.676 2298.39 2293.459 2296.444 2305.914 2320.804 2333.904 2348.358 2364.424 2378.063 2391.146 2404.022 2414.374 2423.574 2432.007 2439.017 2447.837 2455.479 2460.869 2466.745 2473.857 2482.911 2495.211 2506.039 2516.176 2525.856 2531.769 2538.043 2543.173 2544.378 2543.779 2542.24 2541.907 2541.938 2540.612 2539.357 2539.677 2536.109 2530.718 2523.114 2515.537 2507.655 2501.146 2495.112 2497.229 2505.196 2513.132 2522.287 2525.512 2517.416 2503.365 2489.745 2475.911 2463.577 2454.298 2453.624 2462.096 2468.904 2471.885 2469.335 2462.98 2461.757 2463.536 2467.34 2471.639 2476.398 2477.858 2477.021 2476.323 2475.669 2476.194 2478.401 2481.374 2486.605 2495.721 2504.028 2514.215 2526.518 2537.278 2545.943 2555.74 2564.107 2569.745 2575.309 2581.254 2583.764 2579.842 2577.875 2577.552 2577.245 2577.269 2578.575 2578.916 2581.265 2584.976 2589.332 2593.735 2600.489 2612 2628.341 2646.257 2663.731 2682.608 2699.264 2707.299 2704.708 2696.162 2685.277 2674.255 2669.989 2678.056 2690.692 2701.121 2712.753 2727.612 2740.739 2756.614 2772.583 2787.655 2801.633 2813.629 2823.241 2829.78 2830.874 2827.15 2822.794 2819.363 2815.621 2810.292 2801.75 2790.371 2778.27 2762.814 2744.652 2729.902 2716.242 2703.536 2692.829 2682.805 2684.578 2695.248 2706.894 2715.452 2715.354 2707.592 2697.138 2686.45 2681.307 2689.926 2705.306 2717.497 2723.977 2733.616 2747 2759.65 2776.157 2795.478 2807.017 2800.757 2784.212 2764.365 2743.068 2726.023 2705.48 2688.346 2672.89 2655.8 2639.405 2629.903 2625.647 2623.154 2617.911 2609.013 2604.176 2602.61 2600.273 2607.682 2625.144 2630.374 2623.744 2618.235 2618.202 2615.624 2599.701 2580.779 2559.864 2538.414 2520.664 2500.731 2480.576 2460.097 2438.552 2418.597 2406.351 2407.022 2414.017 2419.652 2423.212 2424.657 2422.896 2431.365 2441.602 2452.891 2466.52 2477.159 2482.804 2485.348 2492.382 2503.854 2509.713 2517.444 2530.549 2539.023 2535.946 2523.272 2510.376 2495.039 2482.504 2473.556 2464.979 2456.778 2449.201 2441.843 2436.071 2426.822 2416.084 2403.698 2385.183 2369.849 2364.798 2368.251 2369.852 2369.505 2373.315 2375.92 2369.884 2359.334 2346.106 2328.778 2319.955 2327.109 2339.733 2355.005 2375.349 2397.602 2417.026 2434.791 2453.978 2474.424 2498.039 2521.96 2540.65 2557.64 2573.708 2591.212 2606.844 2611.083 2598.164 2578.614 2562.063 2545.451 2527.925 2512.131 2497.05 2481.946 2470.458 2458.927 2442.001 2424.187 2402.547 2381.356 2361.474 2340.934 2332.467 2337.392 2344.691 2338.972 2317.149 2297.309 2291.86
2002.544 2003.102 2000.928 1995.965 1986.912 1970.528 1956.328 1945.936 1938.52 1932.401 1927.192 1923.081 1923.306 1924.177 1921.651 1915.363 1911.814 1912.279 1913.305 1914.015 1920.421 1936.608 1963.17 1985.232 2007.587 2028.092 2043.059 2058.942 2075.352 2089.694 2105.502 2119.376 2129.064 2139.395 2146.317 2151.404 2156.944 2160.805 2164.529 2169.592 2176.893 2189.575 2204.228 2218.224 2235.245 2251.922 2262.183 2265.639 2262.579 2257.859 2254.934 2256.597 2264.662 2280.98 2291.352 2293.255 2288.347 2281.276 2277.672 2280.821 2293.01 2308.675 2320.969 2335.175 2352.552 2366.411 2378.466 2390.566 2400.642 2409.534 2417.998 2425.363 2434.19 2441.99 2448.51 2455.461 2464.092 2475.517 2489.436 2502.696 2517.042 2531.159 2542.912 2554.947 2563.093 2566.897 2568.038 2568.29 2568.737 2567.857 2563.771 2558.613 2553.781 2545.063 2532.396 2520.03 2509.338 2497.192 2487.096 2479.646 2481.464 2490.327 2498.968 2507.744 2510.937 2504.942 2491.633 2478.106 2462.171 2447.171 2435.523 2433.318 2440.946 2448.294 2452.413 2451.089 2445.387 2443.614 2445.085 2448.835 2454.647 2459.918 2461.319 2459.217 2457.274 2456.617 2457.12 2459.766 2463.277 2470.052 2478.807 2487.324 2498.083 2511.369 2521.075 2526.509 2533.962 2541.88 2547.575 2553.554 2558.356 2558.424 2554.994 2554.471 2554.073 2553.906 2554.335 2555.968 2556.53 2558.715 2562 2566.955 2573.684 2585.077 2599.817 2618.546 2637.546 2655.702 2673.886 2688.01 2692.263 2688.104 2679.178 2669.288 2659.051 2655.544 2662.267 2674.903 2684.298 2697.356 2712.16 2726.277 2744.902 2760.899 2773.25 2785.799 2797.802 2809.844 2821.908 2829.687 2832.244 2829.43 2826.894 2824.032 2819.052 2812.323 2802.238 2791.086 2777.234 2761.475 2746.94 2733.04 2720.577 2712.822 2705.659 2703.948 2712.036 2725.001 2736.99 2738.271 2729.705 2717.231 2705.855 2701.397 2707.461 2721.15 2736.295 2746.89 2756.416 2767.727 2778.269 2792.272 2806.881 2812.179 2801.813 2784.332 2764.537 2743.663 2727.225 2707.407 2690.497 2675.031 2658.689 2646.207 2643.899 2647.716 2648.905 2642.962 2633.979 2630.379 2627.724 2626.588 2629.103 2642.478 2655.056 2654.242 2647.986 2639.42 2628.174 2610.434 2591.265 2570.964 2548.39 2528.854 2508.862 2488.392 2467.582 2446.737 2429.776 2422.169 2428.811 2439.302 2447.717 2452.354 2452.229 2451.897 2453.881 2459.747 2471.082 2480.257 2492.622 2504.298 2508.999 2512.948 2523.379 2532.272 2540.366 2549.046 2551.52 2543.71 2528.69 2516.776 2503.026 2492.527 2485.272 2477.306 2469.453 2461.751 2449.569 2437.204 2420.915 2408.837 2398.773 2384.491 2377.859 2380.934 2387.378 2391.791 2392.433 2393.951 2392.51 2380.669 2364.957 2350.293 2334.765 2334.999 2345.23 2354.626 2365.149 2382.979 2405.49 2425.304 2444.957 2463.707 2479.88 2500.094 2524.648 2549.316 2569.337 2587.067 2604.384 2618.388 2617.394 2601.711 2580.816 2562.09 2542.926 2525.738 2508.786 2492.858 2475.429 2459.67 2445.686 2430.424 2413.424 2392.125 2373.645 2360.616 2353.782 2358.024 2364.398 2360.404 2337.315 2311.168 2301.874 2304.318
2003.395 2004.248 2005.029 2004.115 1999.285 1989.466 1979.661 1970.803 1964.31 1957.592 1951.891 1947.943 1946.286 1945.518 1943.256 1939.876 1937.772 1936.701 1933.355 1926.835 1919.092 1922.08 1943.953 1971.173 1996.895 2016.527 2031.718 2047.904 2064.896 2078.107 2090.956 2101.662 2110.153 2118.838 2124.773 2129.423 2135.141 2140.516 2147.107 2155.552 2166.166 2182.044 2198.027 2212.316 2227.483 2240.16 2247.953 2248.503 2244.424 2240.763 2238.257 2241.055 2251.666 2267.714 2277.097 2278.206 2272.176 2265.38 2262.881 2268.929 2281.516 2296.804 2309.927 2324.892 2343.46 2356.949 2366.949 2376.978 2386.343 2395.016 2403.062 2410.11 2417.448 2425.009 2433.022 2442.176 2452.773 2465.791 2480.313 2494.761 2510.507 2526.581 2541.497 2558.13 2571.473 2581.287 2588.137 2590.366 2589.43 2584.267 2575.217 2562.971 2552.2 2539.06 2521.737 2507.43 2495.482 2481.654 2469.602 2461.928 2464.145 2473.067 2481.947 2489.373 2492.066 2489.555 2480.021 2468.103 2450.271 2433.531 2419.609 2415.025 2421.529 2429.862 2435.358 2434.93 2429.073 2426.442 2427.899 2432.838 2439.416 2444.263 2444.723 2441.87 2439.338 2438.828 2439.337 2442.48 2447.347 2455.053 2463.659 2472.728 2483.209 2495.89 2503.987 2507.688 2513.613 2521.485 2528.841 2533.821 2536.679 2534.891 2531.556 2532.257 2532.359 2531.95 2532.255 2533.841 2534.996 2536.817 2541.615 2548.595 2558.995 2573.971 2589.552 2609.018 2630.118 2649.561 2666.796 2675.27 2675.117 2669.217 2660.108 2650.743 2642.179 2640.333 2647.194 2658.994 2669.723 2683.118 2698.538 2714.482 2733.977 2746.647 2756.303 2769.342 2782.741 2796.492 2812.843 2827.312 2837.818 2840.37 2837.863 2834.305 2830.827 2826.056 2816.917 2805.953 2793.006 2778.041 2763.549 2749.332 2738.826 2732.915 2728.682 2725.476 2731.389 2745.294 2759.562 2760.068 2750.192 2736.659 2726.031 2724.379 2726.812 2736.274 2751.506 2766.099 2778.225 2787.653 2797.67 2810.322 2819.345 2816.437 2801.936 2784.787 2766.658 2746.812 2731.08 2711.418 2692.788 2678.024 2664.847 2658.487 2661.92 2669.312 2671.722 2666.565 2659.025 2656.031 2653.489 2652.168 2653.29 2658.685 2671.314 2675.683 2667.585 2657.643 2644.265 2625.424 2605.323 2584.178 2561.632 2539.695 2518.332 2497.54 2477.219 2458.655 2446.023 2439.793 2444.736 2455.628 2469.901 2480.396 2480.986 2483.366 2484.617 2480.676 2487.39 2496.608 2507.613 2521.532 2532.378 2536.951 2542.479 2551.528 2562.364 2566.664 2562.605 2551.007 2536.879 2525.12 2512.672 2504.129 2499.354 2491.855 2480.513 2467.075 2448.238 2430.959 2413.817 2407.304 2403.289 2395.728 2394.056 2399.438 2405.284 2410.588 2412.077 2407.5 2397.995 2382.551 2365.485 2353.025 2343.218 2350.881 2365.411 2374.295 2379.487 2390.643 2409.431 2428.219 2448.922 2468.916 2485.48 2503.096 2523.714 2548.214 2572.486 2591.735 2608.215 2623.301 2621.234 2602.595 2579.339 2558.234 2535.397 2515.023 2497.008 2483.267 2464.719 2446.74 2430.717 2417.804 2403.238 2386.368 2375.997 2374.232 2377.082 2380.445 2377.545 2361.331 2331.264 2312.905 2314.256 2320.559
2006.236 2005.772 2005.986 2005.906 2004.32 2000.217 1995.632 1990.85 1987.008 1980.922 1976.492 1974.722 1972.467 1969.476 1965.932 1963.425 1963.975 1964.944 1961.601 1951.918 1936.544 1925.117 1933.057 1959.377 1987.7 2009.166 2026.027 2039.716 2052.813 2062.506 2072.094 2082.022 2090.558 2098.266 2104.248 2108.526 2115.352 2123.542 2133.609 2146.022 2158.777 2175.529 2189.94 2202.079 2214.333 2224.442 2229.918 2230.004 2226.035 2224.467 2224.673 2228.004 2238.531 2251.317 2259.834 2261.778 2255.302 2249.39 2247.342 2255.802 2269.311 2284.133 2298.085 2313.654 2330.862 2343.18 2351.749 2360.435 2369.202 2377.357 2385.458 2392.583 2399.58 2407.348 2416.637 2428.147 2440.313 2454.374 2469.857 2484.997 2501.423 2518.422 2534.371 2552.847 2569.017 2582.326 2593.205 2597.556 2595.628 2583.51 2567.904 2552.701 2539.288 2525.047 2508.932 2494.108 2480.758 2465.957 2452.721 2444.202 2446.67 2454.816 2462.059 2467.787 2470.319 2470.612 2465.205 2455.725 2438.43 2422.285 2406.894 2398.446 2404.156 2413.855 2420.786 2420.504 2414.889 2411.021 2412.367 2418.28 2424.615 2428.391 2428.323 2425.248 2422.574 2421.711 2422.24 2425.464 2431.523 2438.858 2448.173 2459.215 2468.087 2476.682 2482.372 2486.284 2493.065 2502.336 2511.317 2515.031 2515.133 2512.842 2507.971 2509.843 2510.781 2510.459 2510.656 2511.887 2513.224 2516.366 2524.32 2534.268 2547.335 2565.194 2581.737 2601.396 2623.86 2644.555 2656.661 2658.102 2656.112 2650.283 2641.526 2631.94 2624.05 2623.702 2631.288 2643.532 2657.922 2672.105 2685.849 2699.112 2715.71 2727.579 2738.501 2754.544 2770.545 2785.143 2803.202 2820.292 2836.749 2848.11 2849.928 2847.297 2844.615 2840.247 2832.094 2820.556 2807.391 2793.276 2781.52 2768.602 2759.243 2753.029 2749.577 2746.908 2750.563 2763.598 2777.611 2779.021 2768.992 2756.542 2749.771 2750.232 2749.707 2753.899 2764.939 2779.933 2796.302 2807.887 2817.1 2828.192 2831.847 2823.701 2807.887 2791.292 2773.449 2752.866 2735.123 2714.525 2696.399 2686.312 2679.354 2675.665 2680.628 2689.162 2692.352 2688.782 2683.792 2680.9 2678.855 2676.175 2677.136 2680.078 2686.447 2686.173 2672.671 2658.664 2643.892 2624.872 2605.498 2585.574 2565.34 2545.328 2524.137 2505.015 2490.487 2478.756 2470.462 2465.003 2462.901 2468.35 2483.522 2502.436 2511.08 2513.673 2516.523 2509.055 2506.674 2515.331 2524.356 2536.324 2551.246 2561.015 2565.111 2570.127 2579.624 2580.221 2572.782 2561.171 2548.591 2536.542 2526.813 2520.859 2514.261 2501.963 2486.04 2468.537 2448.009 2430.963 2418.661 2421.829 2422.34 2419.46 2416.495 2419.711 2424.625 2428.71 2425.73 2414.16 2399.851 2383.094 2367.272 2360.178 2358.659 2364.177 2378.566 2392.587 2399.829 2405.274 2415.306 2429.837 2448.658 2468.385 2486.193 2504.809 2522.619 2543.252 2566.755 2588.333 2606.819 2620.013 2614.693 2596.371 2573.943 2554.259 2532.951 2513.729 2498.925 2485.309 2466.584 2450.245 2434.599 2423.979 2412.912 2401.374 2398.029 2400.663 2399.463 2392.857 2380.528 2362.231 2339.158 2323.464 2329.575 2337.541
2010.896 2009.167 2007.559 2006.74 2005.027 2002.195 2000.238 1999.417 1997.848 1995.386 1994.687 1996.944 1998.089 1997.25 1994.08 1991.076 1992.035 1995 1992.052 1981.037 1966.256 1949.391 1940.307 1952.639 1980.417 2002.959 2017.102 2026.389 2035.007 2041.812 2050.577 2060.503 2067.963 2074.42 2081.708 2087.904 2098.225 2110.351 2122.959 2137.177 2149.435 2163.625 2176.194 2186.05 2195.84 2205.855 2211.97 2211.836 2207.427 2207.582 2211.547 2216.359 2225.982 2235.862 2241.973 2243.339 2237.251 2233.149 2233.885 2243.528 2258.466 2271.284 2283.251 2296.801 2311.134 2322.763 2331.175 2340.074 2347.772 2357.014 2364.975 2372.767 2381.632 2390.549 2401.413 2414.356 2428.02 2443.672 2460.914 2476.146 2493.36 2511.208 2525.949 2543.575 2558.341 2570.004 2580.208 2584.487 2581.03 2568.111 2552.626 2537.799 2523.23 2509.556 2495.222 2480.776 2466.717 2451.822 2437 2425.774 2426.119 2433.849 2440.868 2446.082 2448.781 2449.506 2449.816 2442.368 2426.769 2410.89 2394.167 2382.358 2387.021 2397.459 2406.104 2406.883 2401.303 2397.072 2397.847 2403.411 2410.107 2413.701 2413.748 2410.259 2406.546 2405.063 2405.578 2409.004 2415.208 2422.786 2432.89 2444.802 2451.849 2455.104 2458.894 2463.392 2471.227 2480.981 2490.563 2493.22 2491.631 2490.701 2488.21 2489.779 2489.259 2488.139 2488.176 2489.406 2492.91 2498.889 2509.806 2522.864 2538.066 2556.88 2574.842 2594.308 2614.617 2632.1 2637.893 2636.935 2635.272 2630.701 2623.051 2612.562 2605.103 2606.16 2615.564 2628.836 2644.779 2658.641 2670.114 2680.314 2694.213 2707.771 2722.477 2741.809 2760.077 2776.461 2794.802 2810.473 2828.27 2845.138 2854.438 2858.794 2857.416 2854.551 2846.905 2835.104 2822.85 2811.097 2801.898 2790.633 2781.323 2775.609 2771.64 2768.06 2770.172 2780.174 2792.716 2796.453 2788.902 2779.203 2775.309 2776.933 2776.818 2776.801 2780.625 2792.638 2811.184 2826.785 2837.382 2845.311 2845.364 2833.521 2815.48 2796.776 2777.3 2755.927 2737.468 2718.139 2706.641 2704.437 2703.226 2699.363 2701.38 2708.699 2713.1 2710.36 2706.885 2707.135 2706.628 2702.08 2702.961 2706.843 2707.123 2699.936 2683.204 2665.722 2649.289 2630.927 2613.226 2594.995 2576.37 2557.496 2535.977 2518.925 2511.149 2506.675 2502.695 2498.926 2492.191 2489.547 2497.679 2518.553 2539.51 2546.837 2544.558 2540.467 2534.831 2537.293 2544.966 2554.338 2567.258 2580.213 2587.908 2592.881 2597.442 2593.367 2585.572 2574.197 2560.879 2551.281 2546.11 2539.494 2527.585 2510.65 2493.316 2475.974 2456.311 2439.968 2431.055 2439.106 2444.796 2442.57 2439.372 2442.541 2445.32 2442.951 2432.974 2418.116 2402.52 2385.057 2371.862 2369.548 2373.238 2377.469 2387.447 2406.515 2420.088 2426.279 2431.189 2438.979 2453.244 2470.149 2487.88 2508.679 2527.922 2545.899 2565.815 2589.109 2610.647 2621.829 2613.17 2595.603 2575.429 2558.54 2541.182 2524.459 2509.823 2493.496 2479.502 2470.403 2457.183 2445.768 2435.534 2428.665 2427.786 2427.179 2418.298 2406.749 2391.384 2373.679 2352.457 2335.982 2343.998 2354.774
2018.927 2017.456 2013.287 2009.143 2004.936 2001.008 2000.14 1999.719 1999.406 2000.028 2002.502 2007.323 2013.58 2018.133 2019.073 2018.322 2019.559 2022.776 2020.783 2010.956 2002.744 1986.564 1965.395 1955.05 1966.174 1984.39 1997.181 2005.213 2013.62 2020.919 2030.601 2041.58 2047.658 2053.136 2061.866 2070.927 2084.507 2098.559 2111.732 2125.166 2135.301 2147.258 2158.831 2168.472 2177.355 2187.836 2195.555 2195.595 2191.439 2190.222 2195.612 2203.594 2213.174 2220.874 2225.141 2225.323 2220.064 2218.333 2223.793 2236.518 2248.225 2257.94 2268.037 2279.777 2292.07 2302.351 2311.417 2320.91 2328.515 2338.223 2346.417 2354.032 2364.67 2376.222 2389.383 2404.692 2420.067 2436.887 2455.072 2470.716 2487.328 2504.305 2517.141 2531.471 2543.186 2552.754 2561.381 2564.544 2560.363 2550.072 2538.432 2524.015 2508.86 2495.532 2481.56 2467.611 2454.576 2439.827 2423.307 2409.948 2407.863 2414.372 2421.416 2426.994 2430.871 2431.039 2436.15 2431.385 2418.096 2401.921 2383.567 2369.34 2372.844 2382.438 2390.872 2392.894 2387.914 2383.912 2383.805 2390.022 2395.533 2399.908 2400.356 2396.614 2392.697 2390.022 2389.927 2394.321 2401.691 2409.538 2420.866 2431.056 2434.448 2435.636 2438.133 2443.724 2452.313 2461.69 2469.767 2471.748 2469.981 2469.539 2469.756 2471.977 2469.731 2467.262 2466.889 2469.455 2475.787 2483.937 2497.216 2512.778 2529.484 2547.988 2566.873 2585.192 2599.101 2607.318 2610.835 2612.232 2611.254 2609.973 2604.249 2593.822 2586.778 2589.524 2601.305 2616.296 2629.066 2641.44 2652.266 2662.911 2677.049 2692.851 2710.613 2732.314 2750.741 2767.725 2785.595 2798.956 2815.148 2833.229 2850.194 2862.353 2865.517 2864.942 2859.324 2849.279 2838.819 2829.104 2820.5 2810.558 2800.996 2798.054 2794.471 2789.354 2790.377 2797.781 2809.348 2813.162 2807.392 2800.68 2797.601 2800.409 2802.557 2800.703 2800.271 2806.303 2824.04 2841.788 2854.963 2861.396 2855.134 2839.251 2818.665 2798.968 2778.91 2757.02 2739.462 2725.659 2722.972 2725.635 2726.23 2722.344 2721.053 2725.94 2731.163 2728.759 2726.514 2729.181 2731.372 2726.588 2727.214 2733.369 2732.511 2721.275 2702.822 2683.498 2666.022 2648.068 2629.793 2611.934 2594.223 2575.142 2555.394 2540.103 2533.181 2531.532 2532.448 2531.654 2521.564 2513.249 2515.681 2531.068 2556.749 2572.981 2571.023 2565.939 2562.249 2560.632 2565.367 2574.069 2583.845 2595.38 2607.651 2617.061 2617.97 2609.522 2598.771 2584.661 2572.483 2567.498 2562.306 2550.393 2534.229 2518.79 2503.313 2486.907 2466.854 2450.62 2446.3 2459.639 2467.065 2463.707 2460.842 2462.37 2458.455 2448.477 2434.046 2418.144 2403.363 2388.82 2379.409 2376.758 2383.465 2393.348 2398.034 2413.212 2429.223 2441.731 2450.703 2456.64 2465.345 2477.341 2491.27 2509.101 2531.546 2549.694 2568.515 2591.598 2615.42 2630.219 2623.047 2605.574 2586.304 2570.965 2553.511 2533.227 2516.617 2502.457 2495.312 2490.682 2479.048 2468.029 2459.11 2455.187 2454.456 2449.822 2437.119 2421.656 2403.924 2385.119 2361.764 2347.053 2354.473 2367.833
2025.669 2024.971 2022.344 2015.658 2008.598 2002.097 2001.34 2000.941 2000.09 2002.869 2007.513 2013.656 2021.422 2027.256 2031.078 2033.186 2035.136 2038.708 2040.427 2037.481 2034.379 2021.085 1995.505 1969.105 1956.938 1962.642 1971.943 1976.792 1985.585 1996.562 2003.903 2018.304 2027.94 2034.726 2046.249 2058.204 2071.177 2082.905 2094.853 2106.942 2116.812 2128.159 2138.709 2148.48 2158.594 2170.307 2177.575 2178.498 2175.16 2172.874 2178.335 2187.788 2196.639 2203.542 2206.498 2204.856 2203.575 2205.059 2214.604 2226.852 2234.325 2242.709 2252.386 2263.376 2274.38 2283.185 2291.885 2301.425 2309.882 2320.187 2330.619 2339.419 2352.177 2366.87 2382.193 2399.451 2416.226 2433.61 2450.491 2464.838 2478.901 2493.021 2503.795 2515.776 2525.56 2533.889 2541.355 2544.33 2539.779 2530.015 2521.446 2509.225 2494.414 2481.141 2467.175 2453.36 2441.095 2427.018 2410.59 2395.472 2389.797 2394.877 2402.576 2408.777 2412.293 2413.145 2420.458 2419.657 2409.492 2394.065 2375.314 2360.543 2359.61 2367.437 2374.617 2376.743 2372.192 2368.86 2369.689 2375.328 2379.748 2383.138 2383.246 2381.043 2378.36 2375.197 2374.514 2380.506 2389.087 2399.054 2410.322 2417.463 2416.927 2416.545 2417.302 2423.715 2434.349 2443.056 2449.147 2450.22 2447.387 2446.391 2447.733 2451.295 2449.915 2447.609 2447.189 2451.385 2460.117 2470.606 2485.56 2502.085 2519.885 2538.436 2554.944 2568.548 2577.613 2580.748 2583.6 2583.731 2582.474 2581.98 2577.99 2570.658 2568.482 2574.871 2588.055 2601.115 2610.219 2621.941 2635.582 2650.563 2668.79 2686.16 2702.688 2721.325 2737.077 2753.127 2770.96 2784.703 2801.444 2818.431 2836.812 2857.436 2870.635 2874.407 2870.428 2863.486 2855.175 2846.779 2839.749 2831.919 2824.209 2823.584 2821.146 2816.612 2815.22 2817.693 2827.482 2831.618 2829.248 2824.841 2822.71 2825.207 2826.738 2824.279 2823.007 2825.299 2838.032 2855.429 2869.991 2873.222 2859.942 2840.658 2820.146 2800.857 2780.408 2760.322 2746.579 2742.822 2745.14 2749.265 2748.73 2743.307 2739.128 2743.967 2750.822 2748.263 2745.202 2746.383 2750.482 2753.746 2755.526 2759.46 2755.79 2741.569 2721.844 2702.355 2684.814 2666.232 2647.001 2628.092 2609.907 2593.096 2573.689 2561.227 2557.321 2559.524 2561.69 2559.755 2545.973 2534.78 2534.203 2543.74 2565.423 2589.273 2595.584 2589.594 2585.783 2586.563 2589.92 2595.448 2602.837 2611.82 2626.663 2637.976 2636.498 2622.882 2608.456 2595.33 2587.899 2583.456 2572.528 2557.298 2542.234 2528.889 2513.21 2494.367 2475.59 2463.061 2467.568 2483.19 2489.844 2487.84 2484.313 2478.843 2467.144 2452.674 2436.378 2419.09 2406.226 2397.549 2391.239 2384.665 2391.725 2407.963 2415.829 2421.73 2430.227 2443.884 2459.438 2471.095 2481.302 2493.06 2504.107 2516.538 2536.109 2552.714 2572.949 2595.632 2616.18 2635.001 2632.072 2614.8 2594.961 2579.281 2564.462 2546.611 2530.083 2518.49 2511.072 2503.514 2492.625 2488.564 2488.066 2483.75 2476.363 2463.755 2444.234 2425.219 2407.215 2388.602 2370.639 2360.425 2363.82 2373.492
2028.865 2028.996 2030.139 2025.173 2016.422 2008.098 2006.637 2008.908 2008.709 2011.458 2017.259 2023.728 2029.089 2032.563 2035.731 2038.432 2041.188 2044.595 2047.828 2049.352 2049.151 2042.384 2025.954 2002.5 1975.871 1963.212 1965.819 1969.84 1976.313 1979.239 1980.612 1993.151 2007.811 2018.557 2031.264 2043.875 2055.588 2064.503 2074.405 2086.041 2095.827 2106.672 2118.471 2127.902 2139.276 2151.264 2157.423 2160.267 2157.98 2156.769 2162.437 2171.343 2179.11 2183.524 2186.33 2187.273 2190.881 2194.962 2204.272 2211.81 2218.297 2227.652 2237.462 2247.575 2257.484 2265.587 2274.464 2284.139 2293.091 2305.956 2321.112 2334.088 2349.54 2365.823 2381.514 2398.406 2414.015 2428.531 2442.961 2455.568 2467.795 2479.411 2489.158 2499.453 2509.03 2517.871 2525.483 2527.214 2520.721 2509.711 2501.714 2491.535 2478.49 2466.164 2452.897 2439.125 2427.132 2414.583 2400.392 2384.782 2373.944 2374.846 2381.456 2386.783 2390.673 2394.641 2402.024 2404.375 2400.385 2386.805 2370.647 2353.547 2343.874 2349.141 2357.033 2360.405 2357.508 2354.9 2356.92 2361.47 2364.342 2366.334 2366.122 2364.804 2362.764 2360.244 2360.383 2366.809 2375.972 2387.618 2397.388 2401.296 2397.462 2393.999 2395.049 2403.353 2416.091 2425.086 2429.283 2429.761 2425.755 2424.193 2426.239 2430.345 2429.543 2427.641 2428.377 2434.762 2445.142 2458.716 2475.737 2492.68 2510.257 2526.553 2538.215 2546.52 2552.33 2555.875 2558.464 2557.018 2554.774 2554.341 2552.091 2548.474 2550.318 2561.698 2573.101 2582.538 2591.745 2607.54 2625.688 2642.601 2661.788 2677.263 2691.322 2707.613 2722.863 2738.455 2757.699 2773.567 2791.823 2810.843 2827.742 2847.059 2866.025 2874.236 2877.129 2876.857 2874.363 2868.576 2861.755 2854.49 2850.016 2848.595 2845.368 2842.263 2839.579 2840.34 2847.923 2853.244 2852.612 2848.337 2846.952 2851.01 2852.519 2848.341 2847.305 2847.489 2856.661 2870.653 2882.695 2878.941 2860.877 2840.778 2821.16 2803.421 2784.796 2768.612 2761.031 2766.096 2770.627 2772.702 2769.712 2764.125 2759.595 2764.796 2771.335 2768.567 2765.127 2766.537 2772.458 2781.335 2783.595 2780.856 2772.701 2757.031 2737.15 2717.719 2698.734 2679.182 2662.272 2643.99 2626.124 2610.267 2593.992 2589.368 2586.435 2590.585 2592.734 2584.513 2567.375 2554.585 2553.082 2565.653 2580.872 2602.848 2618.381 2617.061 2612.906 2615.041 2619.98 2620.261 2625.253 2633.312 2645.581 2653.742 2649.097 2631.594 2619.086 2611.165 2605.266 2597.336 2582.661 2567.958 2553.071 2537.394 2521.845 2504.74 2489.805 2481.129 2486.916 2502.019 2511.649 2509.906 2501.551 2490.838 2474.644 2457.967 2441.49 2423.125 2411.901 2407.523 2402.832 2394.082 2400.047 2419.135 2434.508 2440.664 2442.328 2448.192 2460.007 2473.772 2489.396 2505.384 2518.834 2532.471 2547.986 2562.244 2581.395 2601.75 2621.167 2640.573 2642.191 2627.9 2609.4 2594.922 2581.697 2564.586 2550.051 2540.53 2532.071 2524.138 2516.151 2513.576 2510.061 2496.876 2481.425 2464.215 2446.123 2427.494 2406.883 2390.381 2379.737 2374.075 2374.172 2383.361
2038.337 2039.155 2039.937 2035.651 2025.812 2018.174 2017.719 2019.915 2021.173 2026.581 2033.641 2037.313 2038.288 2038.292 2038.953 2041.614 2045.293 2048.176 2050.507 2052.542 2053.615 2052.642 2047.417 2036.168 2014.339 1996.616 1993.336 1994.566 1993.22 1981.555 1975.553 1979.832 1990.94 2002.97 2015.891 2027.985 2037.677 2045.456 2054.614 2066.881 2077.735 2087.789 2100.06 2109.403 2120.883 2130.371 2136.773 2141.093 2140.059 2139.275 2146.994 2156.691 2163.095 2166.405 2171.117 2176.091 2182.094 2187.281 2193.478 2199.574 2206.096 2215.496 2225.359 2234.936 2244.481 2252.415 2262.027 2272.742 2283.595 2299.553 2318.534 2334.682 2351.304 2367.867 2382.981 2397.929 2411.362 2423.451 2435.672 2445.454 2456.634 2467.312 2475.822 2485.366 2496.556 2505.729 2511.903 2512.163 2504.843 2492.958 2484.079 2473.782 2462.761 2452.373 2439.79 2426.31 2414.848 2402.597 2389.794 2375.374 2362.004 2357.598 2362.369 2367.497 2372.045 2378.031 2384.225 2387.891 2390.966 2383.912 2369.897 2351.275 2334.484 2333.224 2342.021 2345.567 2343.792 2342.853 2344.457 2349.589 2350.996 2351.445 2350.91 2350.671 2349.853 2347.276 2347.07 2352.964 2362.548 2373.013 2380.09 2381.989 2378.252 2373.268 2375.961 2385.776 2397.954 2406.795 2410.908 2411.066 2407.968 2406.964 2407.758 2412.114 2410.153 2408.952 2412.22 2421.387 2433.912 2449.959 2469.111 2485.282 2499.753 2511.936 2520.136 2524.779 2530.299 2533.119 2534.977 2533.307 2531.258 2530.93 2529.626 2529.57 2533.731 2543.847 2555.077 2568.65 2581.451 2599.852 2617.298 2632.541 2649.109 2664.06 2678.544 2695.253 2712.002 2728.92 2749.632 2766.297 2784.957 2804.417 2820.578 2835.271 2849.698 2859.179 2869.691 2878.046 2883.514 2883.957 2880.202 2875.094 2872.51 2871.101 2868.658 2863.918 2860.947 2862.064 2868.194 2874.471 2874.263 2869.246 2869.353 2874.588 2876.75 2873.656 2870.954 2869.092 2875.666 2887.705 2894.046 2884.149 2865.396 2845.538 2825.623 2808.83 2793.301 2780.842 2779.291 2787.879 2793.173 2792.247 2789.161 2784.983 2780.093 2783.908 2789.704 2787.483 2785.442 2789.33 2794.495 2797.329 2792.485 2780.382 2766.171 2751.362 2733.799 2716.169 2698.724 2680.741 2665.662 2650.128 2635.081 2623.013 2618.297 2617.67 2614.636 2616.156 2614.967 2601.635 2582.936 2570.808 2573.285 2590.254 2602.731 2616.888 2633.321 2639.151 2638.462 2639.882 2645.192 2646.353 2648.546 2656.004 2664.46 2666.602 2657.881 2642.702 2635.102 2628.153 2617.581 2604.709 2589.49 2574.922 2559.414 2544.215 2532.254 2520.762 2509.081 2504.046 2507.142 2519.193 2531.046 2527.404 2512.948 2499.082 2481.527 2462.747 2445.907 2429.607 2422.469 2421.277 2413.55 2403.366 2407.536 2425.338 2444.351 2457.797 2463.001 2463.725 2468.466 2477.241 2492.706 2508.963 2524.297 2540.985 2557.777 2572.755 2590.641 2610.167 2630.021 2647.699 2651.807 2640.651 2623.925 2608.813 2594.743 2579.514 2567.926 2561.562 2554.672 2549.699 2541.027 2530.686 2516.579 2497.359 2480.554 2463.406 2447.512 2430.849 2408.499 2396.053 2389.053 2385.698 2386.109 2396.313
2050.923 2052.038 2051.679 2047.017 2038.097 2032.705 2033.581 2037.226 2041.527 2047.505 2052.305 2051.993 2048.635 2046.483 2045.894 2047.252 2050.087 2052.799 2053.715 2055.064 2056.667 2057.575 2057.334 2054.969 2046.838 2036.418 2032.137 2029.869 2022.037 2006.717 1991.957 1984.429 1982.354 1985.164 1996.484 2008.908 2017.102 2024.926 2034.32 2046.912 2059.15 2069.134 2080.874 2090.702 2101.084 2107.753 2112.049 2115.429 2119.229 2124.592 2134.609 2144.134 2151.189 2157.052 2163.204 2168.669 2175.019 2180.494 2186.51 2193.352 2200.157 2208.398 2216.582 2224.81 2233.626 2242.634 2253.57 2266.483 2278.561 2295.516 2314.74 2330.518 2348.055 2364.551 2379.58 2393.821 2405.818 2416.538 2426.709 2434.897 2444.886 2454.268 2462.785 2473.27 2484.338 2491.536 2494.099 2493.609 2487.236 2475.598 2465.876 2455.519 2444.588 2435.344 2424.076 2411.971 2401.168 2389.635 2377.352 2364.384 2350.16 2341.315 2342.925 2348.078 2354.006 2358.301 2364.378 2370.468 2380.546 2380.111 2368.097 2349.458 2330.947 2321.684 2326.395 2330.034 2328.825 2329.615 2332.339 2336.952 2337.378 2336.961 2336.722 2338.461 2339.016 2335.104 2332.829 2338.136 2347.968 2356.273 2361.323 2362.425 2359.247 2354.578 2358.761 2370.383 2380.177 2387.061 2391.144 2389.833 2386.945 2387.379 2388.24 2391.708 2389.358 2391.661 2397.866 2410.648 2425.964 2443.36 2462.033 2475.689 2485.038 2494.077 2501.028 2503.855 2509.021 2510.564 2511.208 2508.892 2507.813 2506.929 2507.815 2511.788 2518.546 2527.63 2540.967 2560.213 2574.524 2589.582 2603.926 2618.903 2636.013 2653.363 2670.711 2689.396 2707.198 2724.876 2744.859 2762.781 2780.546 2794.461 2805.808 2817.447 2828.364 2838.763 2851.088 2863.152 2875.469 2886.135 2890.514 2894.142 2895.696 2896.021 2893.932 2889.543 2886.083 2887.159 2891.68 2896.917 2896.313 2890.91 2893.629 2898.709 2900.966 2900.037 2895.263 2893.065 2896.832 2905.604 2903.625 2888.908 2871.203 2852.164 2833.404 2818.565 2806.544 2797.187 2798.503 2808.297 2815.891 2813.841 2810.066 2807.014 2802.378 2805.231 2809.469 2807.581 2806.795 2810.409 2809.066 2799.597 2788.241 2771.443 2754.226 2738.666 2723.391 2709.711 2695.269 2678.687 2664.691 2652.742 2644.327 2639.816 2643.535 2643.636 2639.584 2636.767 2628.614 2613.356 2597.361 2589.292 2594.136 2609.021 2621.051 2631.725 2645.777 2657.378 2661.87 2662.924 2668.114 2673.921 2674.667 2679.418 2683.679 2680.378 2669.541 2659.813 2653.39 2641.58 2625.462 2609.445 2593.776 2579.687 2567.837 2558.135 2548.115 2536.943 2529.185 2529.535 2535.333 2542.384 2547.358 2538.786 2521.281 2505.75 2489.204 2469.837 2451.912 2439.129 2437.18 2435.675 2424.884 2414.189 2416.815 2433.458 2452.167 2469.604 2481.479 2484.557 2486.513 2490.023 2500.068 2514.336 2528.273 2543.47 2560.282 2577.191 2595.542 2616.542 2636.942 2654.799 2660.164 2652.567 2637.147 2620.562 2606.373 2596.821 2588.886 2581.542 2572.499 2562.298 2546.101 2527.937 2509.899 2491.357 2475.73 2459.318 2443.348 2428.515 2412.767 2403.637 2398.352 2396.857 2400.994 2411.083
2061.102 2062.772 2062.911 2059.954 2054.001 2051.793 2055.917 2061.695 2066.002 2066.761 2066.344 2063.869 2059.348 2055.74 2054.325 2054.74 2056.135 2057.767 2058.011 2058.823 2060.106 2060.876 2061.304 2061.671 2060.639 2058.677 2057.928 2055.367 2045.483 2034.087 2022.795 2010.825 1995.484 1984.271 1984.235 1989.558 1996.38 2003.705 2013.234 2026.153 2038.605 2050.094 2062.512 2072.082 2080.213 2084.885 2088.661 2094.941 2105.985 2119.468 2132.797 2142.361 2149.631 2155.781 2161.319 2166.785 2172.948 2178.24 2184.49 2190.951 2197.436 2204.272 2210.818 2217.092 2224.93 2234.921 2247.278 2261.537 2274.006 2290.702 2307.933 2323.459 2341.153 2356.891 2370.793 2384.13 2394.972 2405.099 2413.765 2421.61 2431.627 2440.867 2449.927 2461.013 2470.156 2474.314 2474.099 2472.42 2467.697 2457.035 2447.044 2437.091 2426.773 2417.693 2407.051 2396.684 2386.709 2376.337 2365.035 2354.127 2340.509 2328.742 2325.359 2328.408 2335.692 2340.159 2348.066 2357.966 2370.874 2373.864 2364.846 2347.941 2329.648 2314.47 2311.41 2314.935 2315.164 2317.402 2322.336 2326.156 2325.952 2324.638 2325.06 2328.136 2329.109 2323.551 2319.494 2323.511 2333.222 2339.068 2342.58 2343.772 2339.212 2337.016 2344.584 2356.022 2364.083 2368.625 2371.291 2368.61 2365.326 2367.205 2370.971 2371.918 2370.426 2376.614 2387.523 2403.319 2418.69 2432.704 2446.766 2457.59 2465.646 2473.658 2479.579 2482.738 2486.933 2487.873 2487.677 2486.286 2485.894 2485.904 2489.98 2496.992 2506.317 2516.539 2530.452 2548.928 2563.593 2579.99 2596.925 2613.861 2632.975 2651.94 2671.261 2691.138 2708.125 2724.069 2739.825 2755.547 2768.429 2778.907 2785.877 2796.306 2807.242 2819.221 2831.723 2844.483 2859.596 2876.924 2889.896 2900.839 2907.3 2910.55 2912.776 2913.836 2913.01 2915.209 2918.014 2920.088 2917.881 2913.231 2915.138 2918.952 2922.664 2923.337 2919.435 2917.964 2920.688 2921.322 2912.466 2894.623 2877.873 2860.418 2844.771 2833.02 2821.874 2814.725 2817.421 2827.661 2836.984 2834.925 2832.099 2827.287 2824.293 2827.434 2830.049 2828.35 2825.859 2822.444 2811.176 2794.883 2781.283 2765.228 2749.645 2735.875 2722.66 2710.072 2695.639 2681.119 2671.05 2664.312 2661.598 2662.578 2665.67 2666.013 2659.895 2651.567 2638.057 2623.132 2610.212 2605.771 2613.707 2627.737 2638.834 2649.74 2662.324 2674.516 2683.661 2685.765 2688.948 2696.999 2700.93 2703.552 2703.612 2697.559 2686.486 2677.688 2667.707 2650.352 2633.278 2618.857 2606.868 2596.277 2586.397 2575.627 2562.838 2551.405 2550.834 2555.686 2562.868 2567.553 2563.725 2548.823 2531.485 2515.136 2498.521 2479.237 2461.562 2453.013 2454.378 2451.381 2440.156 2428.85 2428.813 2445.163 2464.157 2481.542 2494.277 2501.958 2506.731 2508.545 2513.398 2524.354 2533.92 2544.797 2560.129 2578.249 2596.468 2618.012 2636.019 2656.156 2667.427 2665.251 2652.13 2637.032 2624.852 2617.022 2607.002 2592.783 2576.634 2560.742 2540.692 2519.085 2501.27 2484.167 2469.809 2455.812 2442.156 2432.449 2423.058 2413.094 2409.835 2409.647 2415.737 2427.132
2070.274 2072.845 2074.551 2073.435 2071.018 2072.627 2080.622 2085.967 2085.705 2082.17 2078.825 2074.455 2069.353 2064.61 2062.35 2062.154 2062.977 2063.826 2063.947 2063.928 2064.146 2064.3 2064.231 2064.289 2064.03 2065.049 2067.125 2067.373 2061.74 2056.117 2050.156 2036.453 2019.546 2001.859 1992.117 1988.818 1989.861 1991.1 1995.281 2006.75 2019.589 2032.9 2046.028 2053.635 2060.103 2065.9 2072.851 2085.853 2101.571 2117.479 2132.287 2143.914 2153.16 2159.298 2163.778 2168.273 2173.038 2177.693 2183.261 2188.697 2194.493 2200.176 2205.494 2210.866 2218.032 2227.527 2240.57 2254.822 2268.01 2283.965 2300.781 2316.523 2333.097 2347.555 2360.364 2372.97 2382.786 2391.574 2399.37 2407.501 2418.543 2429.228 2439.092 2449.35 2455.846 2456.899 2454.174 2450.939 2446.625 2437.28 2428.754 2420.134 2410.073 2401.215 2390.636 2381.439 2372.608 2363.251 2352.429 2342.609 2330.804 2318.865 2311.952 2311.428 2318.367 2326.237 2338.258 2348.951 2360.575 2366.066 2360.657 2346.924 2328.534 2311.8 2301.065 2301.165 2303.473 2308.647 2314.797 2317.61 2316.788 2315.061 2315.513 2317.906 2318.462 2312.648 2307.268 2309.89 2318.84 2323.683 2326.269 2326.254 2321.358 2321.395 2331.798 2341.629 2347.282 2349.517 2350.282 2347.359 2346.305 2350.767 2356.902 2355.71 2355.685 2364.934 2379.991 2395.954 2408.145 2417.399 2427.425 2436.705 2444.969 2453.189 2459.371 2463.276 2466.277 2466.314 2465.561 2465.445 2466.727 2470.043 2477.217 2486.014 2497.229 2508.695 2523.472 2542.21 2559.187 2580.535 2601.285 2619.19 2638.449 2655.724 2674.545 2693.242 2706.649 2717.938 2728.324 2737.995 2747.913 2758.145 2764.873 2775.562 2788.181 2801.089 2815.441 2829.637 2845.049 2862.453 2878.455 2891.712 2900.165 2905.462 2912.176 2918.86 2922.369 2928.349 2934.557 2937.851 2937.638 2934.29 2934.01 2937.903 2942.887 2944.504 2942.519 2941.295 2941.312 2935.138 2921.516 2902.427 2885.597 2870.735 2859.327 2850.292 2839.025 2833.266 2836.02 2845.767 2855.955 2856.865 2853.524 2845.721 2843.838 2848.233 2849.859 2845.299 2836.997 2826.189 2809.288 2791.708 2778.429 2763.737 2751.248 2740.04 2727.044 2712.817 2700.217 2691.223 2686.23 2682.432 2682.944 2686.649 2686.703 2681.504 2671.503 2658.856 2643.937 2630.924 2621.082 2619.394 2628.886 2644.736 2658.841 2671.474 2683.67 2693.537 2704.037 2708.525 2709.502 2718.068 2725.109 2725.776 2722.788 2716.191 2704.275 2690.637 2676.334 2657.963 2643.069 2633.65 2627.784 2618.993 2605.993 2591.797 2580.337 2573.77 2574.777 2580.295 2584.588 2581.6 2571.938 2554.834 2538.252 2522.092 2504.705 2487.015 2472.364 2469.905 2475.027 2471.216 2459.57 2447.549 2441.756 2452.33 2471.774 2490.824 2505.098 2516.71 2526.443 2530.129 2532.591 2540.31 2545.625 2551.336 2562.893 2579.242 2595.635 2615.025 2631.582 2653.464 2671.876 2677.493 2669.834 2656.762 2643.694 2630.078 2615.069 2595.372 2575.562 2558.71 2537.709 2515.619 2497.616 2481.368 2468.516 2458.702 2448.347 2441.818 2434.454 2426.038 2426.046 2427.1 2433.107 2444.177
2081.705 2085.36 2088.591 2089.189 2089.937 2095.241 2103.366 2106.193 2101.223 2096.198 2091.496 2085.842 2080.197 2075.412 2072.269 2070.485 2070.112 2070.547 2070.627 2069.839 2069.111 2068.807 2067.458 2066.428 2066.24 2068.456 2072.142 2075.293 2074.757 2072.727 2068.774 2056.131 2042.186 2026.535 2015.589 2010.757 2007.036 1999.958 1992.312 1993.724 2002.655 2015.941 2028.673 2035.154 2042.491 2053.074 2064.22 2079.789 2095.418 2109.764 2124.36 2138.73 2151.585 2160 2164.829 2168.438 2171.641 2175.686 2180.908 2185.518 2190.291 2194.593 2198.686 2204.183 2211.609 2220.37 2232.343 2246.159 2259.713 2275.259 2291.712 2307.191 2321.911 2335.923 2348.501 2360.813 2369.89 2376.283 2383.894 2392.979 2405.323 2417.418 2427.665 2436.119 2438.75 2436.833 2432.329 2428.479 2423.577 2415.753 2409.048 2402.223 2392.244 2384.591 2374.385 2364.522 2356.825 2348.089 2337.906 2328.242 2317.514 2306.629 2297.907 2295.637 2302.611 2315.837 2329.678 2336.841 2345.26 2351.882 2351.233 2342.646 2325.942 2310.225 2295.387 2289.58 2292.843 2300.347 2305.495 2308.042 2306.742 2305.261 2305.521 2306.96 2307.019 2301.425 2295.378 2297.435 2304.444 2309.29 2311.804 2310.799 2304.69 2304.995 2316.02 2323.637 2326.497 2326.742 2325.93 2324.682 2328.857 2336.523 2341.769 2339.415 2342.478 2354.485 2370.277 2383.444 2392.224 2399.864 2408.955 2417.498 2424.87 2432.046 2438.814 2442.823 2444.883 2444.711 2443.678 2445.177 2449.574 2456.798 2465.653 2476.101 2490.095 2504.634 2522.177 2542.786 2561.648 2585.642 2608.354 2624.468 2640.722 2655.302 2671.256 2685.301 2693.345 2701.133 2708.74 2714.713 2723.821 2733.729 2742.666 2754.734 2769.04 2783.458 2800.523 2816.637 2832.27 2848.698 2863.204 2874.341 2881.356 2886.892 2894.498 2903.149 2909.195 2918.574 2929.742 2937.537 2943.068 2946.029 2949.098 2954.815 2960.891 2963.99 2964.954 2963.233 2957.387 2946.732 2930.944 2912.893 2897.656 2886.025 2876.668 2867.967 2858.575 2854.446 2855.675 2863.933 2874.063 2878.996 2875.063 2867.598 2866.877 2869.738 2867.41 2858.246 2844.329 2829.739 2811.348 2793.151 2781.313 2768.372 2757.082 2745.653 2731.73 2719.239 2713.681 2710.82 2705.871 2701.574 2705.583 2709.095 2703.908 2690.926 2677.859 2663.643 2650.305 2639.579 2631.017 2630.575 2640.952 2656.977 2673.37 2689.24 2705.013 2715.93 2726.497 2733.441 2734.919 2742.419 2749.531 2748.075 2742.225 2733.485 2719.575 2701.012 2684.832 2670.067 2660.341 2655.097 2649.427 2636.792 2619.81 2606.813 2602.842 2602.766 2601.933 2603.418 2598.477 2585.252 2571.002 2554.45 2538.429 2524.483 2508.973 2494.72 2485.53 2489.254 2497.581 2494.074 2482.91 2469.725 2458.555 2459.342 2474.562 2495.289 2514.188 2529.813 2543.533 2551.877 2556.99 2560.308 2561.616 2565.489 2574.833 2586.563 2600.061 2614.842 2629.475 2650.151 2672.003 2684.121 2680.605 2665.976 2649.166 2631.448 2614.268 2594.367 2573.913 2556.518 2535.276 2514.851 2497.428 2482.23 2471.11 2464.381 2458.499 2453.614 2446.884 2443.246 2448.708 2454.962 2461.388 2469.519
2096.867 2101.385 2105.014 2106.831 2109.063 2116.907 2122.917 2123.187 2115.688 2109.176 2102.842 2097.021 2092.393 2088.114 2083.201 2078.734 2076.439 2075.825 2075.091 2074.088 2074.355 2073.692 2071.614 2069.795 2070.41 2074.815 2080.238 2084.177 2084.447 2082.712 2079.15 2071.812 2061.605 2050.913 2043.118 2038.997 2032.247 2019.062 2001.859 1991.267 1992.257 2001.896 2013.145 2021.023 2030.438 2043.04 2055.293 2069.523 2083.658 2097.123 2112.271 2127.858 2142.331 2153.825 2161.392 2166.263 2169.836 2173.382 2178.168 2182.066 2185.811 2189.476 2192.707 2197.585 2204.961 2213.36 2224.189 2237.384 2250.594 2266.35 2281.424 2295.736 2309.396 2323.515 2336.453 2347.759 2355.661 2360.88 2368.771 2378.6 2391.494 2404.329 2413.787 2419.71 2419.245 2415.217 2410.813 2406.822 2401.875 2395.251 2389.012 2382.948 2374.646 2368.166 2358.522 2348.469 2340.795 2332.02 2322.372 2313.79 2306.461 2296.305 2284.282 2281.268 2291.171 2308.875 2319.99 2323.227 2328.249 2332.495 2335.109 2332.994 2320.615 2306.649 2291.298 2280.64 2283.516 2291.695 2295.891 2298.138 2297.14 2296.199 2295.579 2296.871 2297.012 2290.941 2284.451 2286.089 2292.349 2297.325 2299.909 2297.362 2289.105 2289.105 2299.07 2304.197 2305.261 2304.501 2303.248 2304.995 2313.629 2322.898 2324.692 2322.582 2329.734 2343.678 2356.284 2368.202 2376.327 2383.646 2391.832 2399.792 2406.717 2412.544 2419.444 2424.159 2425.687 2424.896 2424.733 2428.723 2435.629 2445.037 2455.38 2468.172 2485.573 2503.266 2522.965 2544.022 2562.54 2583.146 2604.206 2618.181 2633.504 2648.115 2660.544 2668.537 2673.335 2679.769 2686.339 2692.386 2701.503 2711.564 2721.865 2736.009 2752.073 2768.578 2787.727 2805.301 2821.28 2837.328 2848.599 2855.095 2861.38 2866.594 2873.407 2882.511 2890.922 2900.815 2912.441 2922.984 2932.212 2940.285 2947.958 2955.497 2965.275 2973.574 2978.955 2978.417 2969.443 2955.621 2940.515 2924.854 2913.205 2904.209 2894.462 2885.015 2877.91 2874.507 2876.373 2884.092 2892.577 2898.258 2896.508 2890.539 2889.092 2887.567 2880.593 2867.413 2850.748 2834.618 2816.241 2799.513 2789.402 2777.976 2765.562 2753.015 2739.309 2732.878 2734.639 2733.962 2726.638 2720.736 2725.792 2725.902 2715.221 2699.222 2684.985 2670.635 2659.897 2651.666 2642.903 2640.896 2650.913 2665.867 2680.543 2697.885 2718.218 2733.053 2745.56 2756.271 2759.256 2765.208 2770.832 2768.697 2760.842 2748.271 2732.694 2713.618 2697.99 2687.78 2682.336 2675.727 2664.339 2648.447 2632.125 2623.382 2625.92 2629.518 2625.831 2620.328 2607.684 2592.125 2577.442 2561.338 2546.49 2535.004 2520.742 2507.805 2502.507 2508.703 2518.394 2516.117 2504.907 2492.135 2478.972 2471.495 2479.771 2497.838 2517.632 2535.542 2552.302 2565.886 2577.09 2578.384 2577.131 2581.371 2589.414 2600.113 2613.91 2624.466 2634.151 2650.213 2671.394 2683.635 2677.46 2660.702 2641.126 2622.046 2605.212 2587.06 2568.196 2551.136 2531.775 2514.814 2499.715 2486.599 2478.569 2474.972 2473.08 2469.935 2465.144 2469.097 2478.898 2487.558 2494.168 2499.833
2112.754 2118.962 2122.11 2123.736 2127.376 2135.967 2139.919 2137.551 2129.1 2122.422 2115.541 2109.734 2105.516 2100.378 2093.717 2088.069 2084.788 2082.528 2081.032 2079.592 2080.172 2078.718 2076.246 2074.414 2077.21 2084.076 2090.104 2092.802 2091.967 2089.892 2085.487 2080.83 2074.567 2068.764 2063.193 2057.606 2048.218 2032.854 2014.136 1998.609 1992.131 1994.958 2003.757 2011.89 2022.11 2034.168 2046.044 2059.34 2072.862 2086.186 2101.495 2116.912 2132.058 2147.014 2158.223 2164.626 2168.969 2172.68 2176.295 2179.818 2182.587 2186.084 2188.946 2192.752 2198.836 2206.595 2217.31 2229.73 2241.088 2256.426 2270.586 2283.981 2297.689 2311.186 2323.636 2333.415 2340.015 2345.597 2354.258 2364.157 2377.672 2389.952 2396.968 2400.545 2398.312 2393.888 2389.998 2385.622 2381.015 2375.246 2369.232 2363.115 2356.655 2351.341 2342.793 2333.596 2325.693 2316.722 2307.956 2300.679 2297.015 2288.812 2273.762 2268.709 2280.85 2300.338 2310.558 2311.052 2313.335 2314.151 2316.435 2319.095 2312.521 2301.373 2286.764 2273.412 2274.23 2282.458 2286.546 2288.075 2288.28 2287.946 2285.922 2287.066 2287.004 2280.714 2273.696 2273.528 2281.011 2287.022 2288.969 2283.162 2274.3 2273.917 2282.068 2285.301 2285.204 2284.371 2284.49 2290.547 2301.968 2308.572 2306.501 2306.975 2316.03 2329.881 2340.908 2352.996 2361.338 2368.287 2375.323 2382.3 2389.297 2395.092 2401.741 2407.418 2407.519 2406.194 2408.998 2415.382 2423.271 2433.83 2447.062 2463.259 2482.573 2500.786 2520.408 2539.954 2555.102 2571.121 2587.557 2601.62 2620.01 2635.708 2644.715 2647.898 2651.413 2657.673 2663.795 2670.287 2680.071 2693.09 2705.641 2722.641 2740.485 2758.928 2779.146 2796.756 2811.456 2824.624 2832.126 2834.655 2840.042 2845.944 2854.582 2865.848 2874.683 2883 2893.27 2903.841 2913.319 2922.099 2932.1 2942.191 2953.98 2967.394 2978.582 2982.436 2977.62 2964.301 2951.518 2939.135 2930.337 2922.389 2913.149 2905.579 2899.377 2894.582 2897.953 2906.06 2913.257 2917.439 2916.086 2910.503 2905.88 2898.778 2887.909 2872.622 2856.783 2842.889 2826.644 2811.471 2802.28 2791.304 2777.214 2763.289 2752.651 2753.623 2758.934 2755.05 2746.597 2740.834 2743.552 2738.997 2724.62 2708.443 2693.119 2679.75 2673.602 2667.899 2658.512 2653.116 2659.328 2673.298 2686.734 2702.982 2723.231 2741.042 2757.128 2773.201 2780.111 2786.304 2790.424 2787.582 2778.708 2765.657 2750.002 2733.66 2717.968 2709.022 2702.925 2692.354 2676.525 2660.417 2649.042 2647.1 2652.383 2652.806 2643.123 2633.079 2619.734 2604.609 2591.166 2577.026 2564.445 2552.451 2538.198 2527.893 2524.892 2529.081 2536.597 2535.429 2524.875 2512.327 2497.853 2488.695 2493.918 2504.501 2518.734 2536.992 2556.936 2573.888 2590.681 2597.385 2596.281 2599.072 2604.576 2613.563 2631.209 2643.714 2650.283 2660.372 2675.768 2681.041 2669.933 2653.504 2633.97 2613.993 2597.899 2581.289 2564.829 2549.854 2533.714 2519.699 2507.598 2497.632 2493.517 2494.968 2494.527 2492.624 2490.728 2498.005 2508.206 2516.183 2522.986 2527.97
2128.293 2136.948 2139.704 2141.174 2147.356 2155.555 2156.262 2151.667 2142.693 2136.133 2130.509 2125.236 2120.108 2113.411 2104.916 2098.479 2094.045 2091.103 2089.236 2086.364 2085.541 2084.782 2082.817 2082.414 2087.48 2094.531 2098.933 2099.461 2097.03 2095.016 2091.548 2087.294 2083.216 2078.874 2072.789 2066.271 2056.249 2041.646 2027.016 2016.044 2006.332 1998.009 1999.226 2005.115 2016.477 2030.675 2044.038 2057.899 2071.94 2085.999 2102.148 2116.813 2131.762 2148.39 2159.88 2165.81 2169.783 2173.379 2175.958 2178.816 2181.146 2184.427 2187.211 2190.28 2195.162 2201.303 2211.595 2222.719 2232.603 2245.548 2258.887 2271.256 2284.988 2297.644 2308.446 2316.378 2322.45 2329.556 2338.594 2348.272 2361.451 2372.818 2377.31 2378.908 2375.536 2371.917 2368.372 2363.86 2359.466 2354.103 2349.134 2343.241 2337.524 2333.339 2327.157 2319.002 2310.744 2302.015 2293.987 2286.713 2284.388 2279.515 2264.846 2257.891 2268.942 2288.415 2298.909 2297.761 2297.2 2294.862 2294.824 2299.259 2298.317 2290.844 2278.348 2266.274 2264.325 2271.669 2276.157 2276.557 2277.583 2278.425 2275.631 2276.255 2275.964 2271.004 2264.403 2261.818 2268.569 2274.623 2274.933 2268.097 2261.573 2260.524 2265.613 2267.191 2267.104 2267.993 2270.11 2278.229 2288.589 2291.804 2289.904 2293.188 2303.073 2316.953 2328.545 2339.642 2347.291 2353.492 2359.78 2365.922 2372.514 2378.051 2384.63 2389.181 2387.974 2388.464 2394.005 2401.662 2410.332 2424.466 2441.344 2459.528 2478.238 2494.319 2510.861 2527.197 2539.8 2554.452 2569.942 2583.859 2601.305 2615.912 2622.449 2624.297 2627.252 2633.311 2639.95 2648.052 2661.363 2679.391 2695.279 2714.577 2733.43 2752.589 2773.307 2789.778 2799.353 2806.511 2811.442 2813.69 2818.843 2825.821 2836.749 2848.316 2856.122 2864.596 2873.422 2882.95 2892.878 2902.235 2913.067 2925.414 2937.805 2952.663 2967.815 2977.593 2982.534 2975.556 2965.84 2956.535 2948.225 2941.059 2933.419 2928.389 2922.622 2917.25 2920.209 2927.92 2933.455 2934.859 2932.618 2926.02 2917.382 2905.81 2892.52 2878.109 2865.684 2855.75 2842.274 2827.843 2816.812 2803.36 2788.313 2775.94 2771.641 2777.992 2781.745 2773.281 2764.856 2762.647 2760.462 2750.642 2732.912 2716.755 2701.905 2691.672 2691.136 2686.628 2676.041 2666.776 2667.779 2681.145 2695.308 2710.041 2728.48 2746.245 2765.428 2785.218 2799.032 2809.314 2812.824 2807.98 2796.706 2783.55 2768.857 2757.31 2744.388 2734.318 2724.71 2711.673 2695.804 2681.103 2674.089 2676.874 2680.356 2673.507 2660.58 2649.027 2635.083 2620.229 2607.717 2595.649 2582.633 2568.115 2553.54 2548.742 2550.707 2552.184 2555.095 2554.426 2544.015 2531.025 2517.859 2510.813 2514.135 2516.721 2523.772 2541.082 2563.849 2583.003 2602.897 2618.211 2619.95 2620.427 2625.365 2629.632 2646.421 2663.117 2671.199 2677.849 2685.494 2683.507 2670.021 2654.175 2637.143 2619.333 2602.064 2584.506 2570.785 2559.112 2545.46 2532.153 2522.581 2515.65 2513.825 2519.939 2522.267 2519.21 2517.452 2521.653 2530.962 2542.35 2550.81 2556.085
2144.846 2155.256 2160.635 2161.748 2167.987 2174.757 2171.577 2165.614 2157.395 2150.784 2144.92 2139.035 2132.768 2124.515 2114.01 2106.466 2101.96 2099.29 2096.703 2092.824 2091.984 2092.187 2092.46 2093.821 2098.809 2103.119 2104.435 2103.677 2100.831 2098.647 2096.293 2092.692 2089.233 2084.14 2077.394 2071.329 2061.375 2049.214 2042.71 2037.993 2027.169 2012.874 2001.184 2000.348 2013.298 2030.444 2047.186 2062.7 2078.268 2093.396 2110.395 2125.892 2140.111 2154.887 2163.395 2168.241 2171.213 2174.453 2176.608 2178.595 2181.206 2184.279 2187.356 2190.426 2194.5 2198.692 2207.118 2217.476 2226.737 2236.277 2247.397 2257.959 2271.037 2283.35 2293.552 2300.144 2306.151 2314.684 2324.611 2334.398 2344.609 2353.331 2357.259 2357.868 2354.036 2350.809 2347.491 2343.672 2339.341 2334.331 2330.342 2324.723 2318.675 2314.452 2310.811 2304.318 2296.815 2288.821 2281.294 2273.401 2270.428 2268.21 2256.182 2249.132 2258.882 2276.242 2285.625 2282.831 2279.218 2275.202 2273.687 2278.05 2279.932 2275.784 2266.021 2256.77 2255.53 2262.154 2266.909 2264.985 2265.709 2268.093 2265.947 2265.167 2265.533 2262.071 2255.263 2252.356 2257.502 2261.017 2258.945 2254.123 2249.605 2248.487 2250.547 2251.302 2253.318 2256.893 2259.457 2267.492 2275.194 2276.785 2277.754 2283.399 2296.372 2309.622 2318.981 2328.272 2335.316 2340.92 2347.142 2352.988 2358.954 2364.056 2369.069 2371.566 2370.897 2373.966 2380.596 2389.552 2400.65 2418.502 2437.087 2453.325 2469.346 2483.584 2497.399 2511.217 2523.778 2539.147 2555.084 2567.743 2580.758 2591.621 2596.81 2600.285 2604.703 2610.657 2620.451 2633.144 2651.346 2672.791 2690.798 2711.034 2730.288 2748.054 2767.484 2780.91 2784.814 2786.726 2789.241 2792.811 2800.42 2808.106 2819.082 2828.801 2836.615 2846.308 2854.738 2863.57 2873.572 2884.218 2896.36 2910.69 2924.412 2940.229 2955.418 2968.688 2981.19 2983.114 2977.885 2971.579 2963.99 2957.131 2950.647 2947.423 2943.152 2938.472 2940.724 2945.913 2950.503 2949.643 2945.134 2936.46 2925.01 2910.955 2897.327 2885.323 2875.477 2865.678 2853.562 2840.116 2825.79 2810.265 2796.938 2791.409 2793.848 2800.664 2799.812 2790.022 2783.543 2781.062 2772.907 2757.96 2738.801 2723.948 2713.18 2708.456 2709.091 2703.43 2692.284 2681.552 2679.856 2690.221 2704.501 2720.101 2738.168 2753.08 2774.203 2794.869 2812.928 2826.607 2833.176 2828.839 2815.37 2800.926 2787.58 2780.041 2770.696 2761.529 2748.938 2734.958 2720.556 2709.322 2702.732 2702.636 2702.119 2691.286 2678.694 2668.219 2655.726 2642.645 2629.136 2617.293 2603.713 2588.288 2572.714 2568.388 2570.984 2572.349 2574.252 2572.319 2560.44 2547.278 2536.611 2533.664 2534.44 2529.947 2534.711 2550.821 2571.129 2590.312 2612.748 2634.315 2642.37 2643.067 2647.117 2648.155 2656.435 2674.082 2688.858 2696.415 2699.829 2693.61 2679.998 2665.875 2649.339 2631.498 2613.606 2597.888 2586.674 2575.162 2560.918 2549.852 2543.815 2538.053 2535.419 2542.617 2547.868 2543.141 2541.67 2544.291 2550.492 2562.345 2573.754 2581.61
2162.31 2174.508 2181.117 2183.007 2188.97 2193.317 2187.099 2180.077 2172.984 2165.988 2159.164 2151.491 2143.41 2134.073 2123.351 2115.356 2111.124 2107.199 2103.907 2100.376 2100.241 2101.843 2104.565 2106.281 2108.217 2109.446 2108.793 2107.513 2105.32 2103.099 2100.436 2097.742 2094.422 2089.729 2084.295 2076.785 2067.417 2060.491 2059.79 2056.065 2046.043 2033.657 2015.818 2003.812 2008.522 2026.42 2045.587 2062.505 2079.158 2096.302 2117.412 2135.467 2147.486 2157.391 2163.677 2168.705 2171.248 2173.911 2177.15 2179.754 2182.631 2185.384 2188.612 2191.521 2195.089 2198.238 2205.323 2213.616 2220.662 2228.452 2238.247 2247.656 2257.756 2269.507 2278.903 2286.24 2292.494 2300.922 2309.217 2317.942 2327.092 2333.028 2336.604 2337.531 2333.527 2329.844 2326.356 2322.96 2319.242 2315.083 2311.235 2305.961 2299.209 2295.091 2292.594 2288.198 2281.861 2274.319 2268.455 2260.706 2256.537 2256.356 2245.769 2239.382 2249.617 2263.574 2270.267 2268.048 2262.167 2258.374 2257.331 2262.449 2263.412 2257.63 2249.669 2243.625 2245.615 2253.014 2255.762 2251.769 2252.568 2255.316 2254.52 2253.696 2254.121 2250.239 2243.996 2242.1 2244.448 2245.052 2241.113 2237.529 2235.221 2235.38 2236.188 2236.756 2241.368 2246.382 2249.367 2256.113 2263.105 2265.772 2269.433 2277.953 2291.444 2302.778 2309.445 2317.096 2324.373 2329.852 2335.347 2340.637 2346.171 2351.823 2355.414 2355.895 2356.882 2361.129 2368.746 2380.429 2394.688 2412.424 2428.667 2442.491 2456.1 2468.402 2481.516 2495.155 2508.156 2523.972 2538.107 2549.384 2559.442 2566.901 2570.139 2573.185 2579.548 2592.551 2610.171 2627.093 2648.094 2668.93 2688.083 2708.687 2726.457 2743.035 2757.712 2764.813 2764.846 2764.337 2765.936 2772.589 2781.587 2788.859 2799.918 2808.67 2816.682 2826.675 2835.905 2844.474 2855.067 2867.225 2880.88 2896.821 2912.385 2928.668 2945.332 2959.651 2975.867 2985.069 2987.824 2986.172 2979.287 2974.798 2970.253 2966.274 2962.279 2959.901 2961.302 2964.739 2968.707 2965.974 2956.578 2944.656 2931.984 2917.698 2904.628 2893.31 2882.568 2872.646 2860.588 2846.513 2832.395 2818.902 2812.296 2813.96 2818.342 2822.177 2816.426 2806.497 2800.175 2793.085 2779.048 2762.449 2744.65 2736.057 2731.779 2731.927 2729.031 2720.77 2707.775 2695.9 2693.432 2700.758 2714.433 2731.074 2750.385 2766.157 2785.476 2804.976 2822.729 2838.968 2849.795 2848.469 2835.161 2820.143 2808.375 2801.508 2794.8 2789.103 2775.478 2761.107 2749.411 2742.14 2734.352 2726.865 2720.173 2709.388 2699.105 2691.556 2683.696 2674.349 2662.035 2648.819 2634.425 2618.492 2601.208 2592.701 2591.619 2593.947 2597.021 2591.829 2576.438 2563.401 2553.716 2553.297 2553.97 2545.517 2548.715 2564.122 2579.163 2595.08 2618.659 2643.829 2660.22 2666.348 2669.964 2672.731 2672.553 2685.641 2706.027 2717.308 2719.034 2710.763 2695.91 2681.392 2666.548 2652.161 2635.748 2617.62 2603.276 2590.112 2580.048 2575.423 2571.568 2561.926 2558.382 2567.255 2571.975 2566.008 2566.753 2572.021 2573.507 2578.791 2592.666 2605.403
